ply
format ascii 1.0
element vertex 1249
property float x
property float y
property float z
property uchar red
property uchar green
property uchar blue
end_header
4.39741 -24.1888 34.9964  255 255 255
-0.160724 -24.7872 36.2939  255 255 255
-23.0903 -55.5436 32.6337  255 255 255
-44.0055 -9.25558 -18.8433  255 255 255
49.7214 -44.344 14.838  255 255 255
-34.179 -49.8923 26.3687  255 255 255
15.1373 -9.3984 26.7425  255 255 255
-43.6464 -10.5513 -17.1997  255 255 255
-29.5157 -57.5247 34.7814  255 255 255
23.6565 -34.5905 18.6686  255 255 255
-21.7987 -55.5664 32.0541  255 255 255
20.0773 -33.0219 23.6776  255 255 255
-43.7672 -56.068 34.3856  255 255 255
3.8145 -15.8324 35.5377  255 255 255
-59.0444 -12.559 -14.4194  255 255 255
-55.0129 -24.1289 -1.43446  255 255 255
53.6525 -5.08876 -3.82201  255 255 255
25.7483 -16.4972 19.4392  255 255 255
-1.95192 -28.7896 36.2905  255 255 255
31.3393 12.1107 -48.1126  255 255 255
18.4111 -36.4457 23.3332  255 255 255
36.9839 -48.7165 20.1184  255 255 255
13.0146 -31.3761 33.6367  255 255 255
-29.1582 -27.2135 15.3908  255 255 255
-53.4734 -28.5431 3.37608  255 255 255
-23.2746 -23.0656 31.6297  255 255 255
-17.4349 -26.7646 35.2128  255 255 255
3.23033 -20.0934 35.2388  255 255 255
19.4608 53.7962 -88.1806  255 255 255
-61.3194 -12.4605 -14.8867  255 255 255
-0.798223 -30.4284 37.9505  255 255 255
-10.8817 -35.8905 32.4561  255 255 255
-9.65294 -34.7452 33.6969  255 255 255
6.17826 -31.5044 38.5415  255 255 255
-18.1493 -59.2157 35.6368  255 255 255
-18.8458 -58.1562 34.678  255 255 255
-7.59726 64.6894 -57.6493  255 255 255
-80.6896 -11.6836 -14.2848  255 255 255
-5.93419 0.454012 23.6727  255 255 255
-3.94369 -11.8882 35.4495  255 255 255
-2.07982 -18.2531 36.0513  255 255 255
-1.47778 -19.3636 35.9418  255 255 255
-1.20176 -17.0412 36.1669  255 255 255
-18.5089 56.782 -56.3027  255 255 255
47.8399 15.2321 -4.17087  255 255 255
6.29049 -13.0868 34.5293  255 255 255
-4.93149 -10.5853 34.9389  255 255 255
-21.7453 -6.96489 17.373  255 255 255
48.7977 64.1489 -100.913  255 255 255
24.4418 62.9534 -84.1733  255 255 255
12.8184 70.8782 -67.8747  255 255 255
-15.5148 -17.8769 30.2738  255 255 255
-7.99159 -15.1687 34.9334  255 255 255
-2.27377 -12.2825 35.7135  255 255 255
-5.73699 -13.7312 35.4223  255 255 255
-52.2163 40.2776 -44.61  255 255 255
-52.263 41.2481 -42.0565  255 255 255
13.0628 -15.9392 30.5205  255 255 255
10.9752 -9.68368 30.7304  255 255 255
14.5229 -14.2837 29.1769  255 255 255
16.1613 -25.9298 31.3374  255 255 255
8.03148 -39.1589 29.7898  255 255 255
14.3364 -10.3214 28.2641  255 255 255
13.0295 -10.0329 29.344  255 255 255
14.0253 -8.5037 27.5907  255 255 255
11.4791 -29.9858 35.7924  255 255 255
8.87229 -9.27441 31.6743  255 255 255
2.69077 -9.14261 34.3394  255 255 255
1.60032 -12.3617 35.51  255 255 255
-39.947 40.1307 -54.2477  255 255 255
3.93732 47.1155 -81.9303  255 255 255
52.1514 -20.9507 -12.071  255 255 255
15.6605 -19.4977 28.6583  255 255 255
-17.8345 -24.5432 32.5583  255 255 255
-13.1205 51.5814 -66.2622  255 255 255
-13.1205 51.5814 -66.2622  255 255 255
45.7204 25.0113 -42.2174  255 255 255
2.58518 46.9391 -81.0696  255 255 255
22.0036 18.8304 -54.3442  255 255 255
28.9206 16.5403 -52.3768  255 255 255
48.9744 -5.48864 -14.4032  255 255 255
51.346 -8.23691 -10.9203  255 255 255
48.6667 -7.28596 -15.6533  255 255 255
53.5365 -13.6298 -9.23338  255 255 255
49.0488 -20.4582 -13.087  255 255 255
3.04025 -14.5918 35.6206  255 255 255
59.0443 -28.5061 -3.97001  255 255 255
59.2667 -28.7928 -3.6027  255 255 255
1.19973 -16.608 36.0768  255 255 255
20.5299 -22.5591 27.1237  255 255 255
-13.3226 -14.8241 31.904  255 255 255
17.0282 -25.5371 30.9259  255 255 255
15.8467 -25.5913 31.0223  255 255 255
13.6987 -28.0311 33.8767  255 255 255
-12.6311 -22.446 34.6952  255 255 255
-12.7528 -22.7229 34.6891  255 255 255
-8.72629 -24.0872 36.3714  255 255 255
44.6303 -42.0975 12.2955  255 255 255
35.9764 -46.7129 17.9314  255 255 255
23.983 -54.5931 27.6142  255 255 255
-1.0222 -58.8628 34.0022  255 255 255
-20.5353 -55.0324 31.2982  255 255 255
-32.4658 -53.744 30.5006  255 255 255
4.59471 48.498 -81.7374  255 255 255
50.9547 35.4089 -75.8298  255 255 255
41.4846 29.8168 -68.8043  255 255 255
48.697 6.94731 -7.61938  255 255 255
-26.4603 18.7334 -51.8957  255 255 255
-53.516 -4.12366 -24.8469  255 255 255
58.2987 -41.3931 11.1531  255 255 255
55.0008 -42.9667 12.5465  255 255 255
42.7992 -45.0611 15.6417  255 255 255
-11.9302 -33.3379 33.9887  255 255 255
-35.4886 -49.9502 26.6788  255 255 255
-27.7035 48.1448 -56.0847  255 255 255
-11.1518 48.1138 -69.6423  255 255 255
49.3509 6.61585 -5.99571  255 255 255
49.9877 -7.36351 -13.4691  255 255 255
-42.0315 -9.08877 -20.5047  255 255 255
4.12134 -24.7977 35.9433  255 255 255
-22.89 -21.0601 28.5304  255 255 255
-16.392 -25.389 33.7462  255 255 255
33.5091 -47.9389 18.7958  255 255 255
-3.71805 -59.4878 35.3432  255 255 255
3.65515 48.7696 -80.1238  255 255 255
-8.85722 -3.55972 29.5628  255 255 255
34.9227 -47.3454 18.2675  255 255 255
29.9293 19.5178 -55.8045  255 255 255
-24.1971 10.657 -42.8861  255 255 255
37.7164 -48.9446 20.4378  255 255 255
48.8503 -42.8963 12.8268  255 255 255
-33.7517 -52.8139 29.4986  255 255 255
45.3732 -44.3759 14.9224  255 255 255
45.5969 -45.0257 16.8865  255 255 255
34.7359 -46.2185 17.4796  255 255 255
-32.4699 -51.8657 28.4308  255 255 255
49.7086 -13.8134 -18.4295  255 255 255
5.73706 -22.5846 33.6923  255 255 255
34.9383 -47.3751 18.1625  255 255 255
-46.5608 45.0376 -45.2841  255 255 255
-8.56406 -29.5714 37.636  255 255 255
49.5508 24.4812 -34.1731  255 255 255
-9.70339 -11.0033 33.5522  255 255 255
-22.7248 -54.8212 30.7405  255 255 255
19.0796 33.1149 -70.9541  255 255 255
-0.675299 -23.9141 35.346  255 255 255
-4.64712 22.6949 -57.3104  255 255 255
23.5522 -24.2003 27.7733  255 255 255
53.1697 -43.3312 12.9201  255 255 255
33.0523 -49.9184 21.7231  255 255 255
-23.1668 -55.7973 32.4184  255 255 255
-19.341 -56.0979 32.8814  255 255 255
-26.1839 -55.0485 31.6241  255 255 255
-29.2007 -54.8137 31.5375  255 255 255
-15.3552 -47.5803 27.401  255 255 255
30.6103 16.8314 -53.7601  255 255 255
-6.40286 -26.9758 35.8023  255 255 255
-9.64491 -19.5259 34.0729  255 255 255
56.8143 -43.6872 13.9062  255 255 255
-0.848496 -49.1664 29.5597  255 255 255
-35.4525 -51.7384 28.2774  255 255 255
-45.5161 -33.8888 8.99846  255 255 255
-67.235 30.096 -40.425  255 255 255
6.1175 51.2953 -79.487  255 255 255
8.59269 60.7813 -67.0243  255 255 255
28.7795 63.8712 -86.0891  255 255 255
36.4468 75.0427 -82.4126  255 255 255
41.0211 70.4488 -90.2667  255 255 255
28.8122 63.9386 -86.2823  255 255 255
16.6749 -11.7939 25.4366  255 255 255
8.55305 -23.5986 33.8631  255 255 255
7.32152 -23.9615 34.5052  255 255 255
31.1306 74.6431 -78.7646  255 255 255
-25.8921 -57.1174 33.8369  255 255 255
-27.7462 43.1263 -61.0672  255 255 255
43.0306 76.8344 -85.423  255 255 255
41.5273 73.6791 -87.0297  255 255 255
46.0827 29.6483 -38.896  255 255 255
53.3449 -7.37164 -6.09981  255 255 255
-33.5255 35.6794 -63.7072  255 255 255
0.141757 65.3771 -62.7384  255 255 255
-27.4262 -55.3166 32.1154  255 255 255
-1.25716 -39.508 32.291  255 255 255
23.6044 60.3079 -85.7007  255 255 255
-32.8972 33.935 -65.2578  255 255 255
-11.1268 48.1476 -69.8993  255 255 255
-29.5037 -56.4676 33.5517  255 255 255
-30.4002 -51.5743 28.0949  255 255 255
-21.7712 -55.4142 31.8053  255 255 255
58.4165 -25.1422 -5.54838  255 255 255
-27.4057 -53.7247 30.3484  255 255 255
-26.9967 -54.4421 31.2229  255 255 255
49.3665 -15.1735 -18.2274  255 255 255
-21.4662 9.74514 -41.7772  255 255 255
-20.8088 -4.82706 14.7905  255 255 255
50.2938 -16.0595 -16.6498  255 255 255
47.1696 -1.38959 -16.592  255 255 255
-80.6099 28.6941 -33.4319  255 255 255
11.7812 64.3056 -73.3096  255 255 255
26.0326 63.3495 -84.4756  255 255 255
52.04 41.0923 -82.6794  255 255 255
43.8329 35.6525 -74.4448  255 255 255
18.4524 31.1185 -69.0599  255 255 255
24.7734 23.2034 -60.1259  255 255 255
54.4918 68.121 -101.569  255 255 255
21.0359 20.2521 -56.5279  255 255 255
23.1259 64.9459 -82.1013  255 255 255
13.1477 60.992 -74.9123  255 255 255
22.2313 37.0518 -76.4991  255 255 255
-40.5732 37.9627 -56.2419  255 255 255
31.791 40.8505 -80.3379  255 255 255
17.969 36.8491 -75.4159  255 255 255
22.046 62.5171 -83.0489  255 255 255
17.9869 35.5773 -73.2964  255 255 255
-44.85 48.8304 -42.3911  255 255 255
-74.2953 29.0504 -42.7524  255 255 255
-70.376 27.5824 -45.4648  255 255 255
17.9941 71.5286 -70.8869  255 255 255
15.204 -28.7419 34.4182  255 255 255
-27.2948 -53.2158 29.609  255 255 255
-34.9018 -48.9281 25.5026  255 255 255
-6.05007 -10.8009 34.7004  255 255 255
15.2539 -16.2317 28.1716  255 255 255
14.5151 -4.7928 23.0451  255 255 255
50.2853 -14.1591 -18.0236  255 255 255
21.94 -34.4023 19.0501  255 255 255
-16.1374 -25.7501 33.9014  255 255 255
-74.5402 7.12248 -36.065  255 255 255
42.503 -44.928 15.5803  255 255 255
6.88658 -10.099 33.0021  255 255 255
5.94265 48.4341 -82.4999  255 255 255
15.1729 -39.9503 25.8292  255 255 255
-26.5391 -9.15355 15.8265  255 255 255
50.6209 17.9462 -36.7641  255 255 255
-44.1737 -25.2639 -0.83808  255 255 255
49.8651 -14.3184 -17.6804  255 255 255
51.7997 -47.5087 18.255  255 255 255
6.23115 -31.1242 38.0908  255 255 255
18.9187 40.841 -80.5154  255 255 255
15.834 -29.1983 34.4471  255 255 255
-3.9764 -7.67351 33.843  255 255 255
30.1864 -52.1639 24.3326  255 255 255
-42.7266 39.7565 -52.1002  255 255 255
11.9786 -33.5788 32.466  255 255 255
-48.8714 41.1952 -45.864  255 255 255
21.6159 -23.2725 27.669  255 255 255
46.6925 -43.4511 13.1477  255 255 255
-4.06145 -9.1356 34.5101  255 255 255
19.6535 37.9741 -76.2611  255 255 255
50.0903 -14.3213 -18.2634  255 255 255
20.4622 -29.0079 27.0539  255 255 255
9.36564 -5.09414 29.1729  255 255 255
-45.6735 -26.8299 1.11064  255 255 255
11.5377 -33.9454 32.3747  255 255 255
-4.39813 -16.3009 35.8868  255 255 255
-21.0201 -3.46728 13.3247  255 255 255
-50.75 -28.8243 3.31029  255 255 255
45.5879 -45.7906 16.3565  255 255 255
52.5452 -4.41845 -5.96686  255 255 255
47.5109 -46.1845 16.697  255 255 255
-36.6708 6.43969 -37.2749  255 255 255
-30.0662 -51.2011 27.4755  255 255 255
49.3013 33.4457 -30.3134  255 255 255
48.571 -12.1442 -19.9641  255 255 255
48.3962 29.0324 -33.8248  255 255 255
-3.05096 -29.9837 37.6484  255 255 255
16.829 -15.2512 26.0327  255 255 255
5.12112 -40.3631 30.6669  255 255 255
-4.51357 -11.1243 35.1505  255 255 255
-4.12404 1.40577 21.9485  255 255 255
48.9523 -48.5092 19.3913  255 255 255
-28.0735 -54.3934 30.9898  255 255 255
50.2799 -2.5524 -9.87271  255 255 255
-8.60787 13.3886 -46.7937  255 255 255
-67.6882 -1.72277 -26.7357  255 255 255
13.3432 -14.0188 30.3389  255 255 255
12.7898 -18.7818 30.9083  255 255 255
-1.09485 -1.43696 27.501  255 255 255
14.4578 -4.81754 23.6554  255 255 255
6.81829 -30.8644 37.5976  255 255 255
7.86312 -38.6528 30.6163  255 255 255
-32.369 -50.7713 27.3232  255 255 255
-5.20469 -20.7622 35.1941  255 255 255
45.3879 26.3028 -42.9727  255 255 255
-30.0439 -51.1829 27.58  255 255 255
-15.0086 -1.77394 22.9439  255 255 255
-4.47023 -9.02752 34.3764  255 255 255
2.06446 -10.6286 35.1043  255 255 255
12.6522 -38.0469 28.1858  255 255 255
-27.9498 -54.7634 31.5179  255 255 255
4.66797 -11.2183 34.3974  255 255 255
12.747 -40.0396 26.2616  255 255 255
-32.9012 -50.5557 29.2237  255 255 255
-24.0786 -22.8659 30.7174  255 255 255
-36.6161 5.67963 -36.145  255 255 255
-22.0643 -55.3502 31.7985  255 255 255
-22.7615 -6.88465 17.5224  255 255 255
-27.8512 -13.4854 20.7527  255 255 255
-27.3826 -16.9596 25.0464  255 255 255
3.31804 -7.79466 33.5384  255 255 255
-12.5831 -6.66594 29.7762  255 255 255
15.3982 -26.7859 32.3476  255 255 255
-26.2999 -54.66 31.753  255 255 255
11.6775 -9.69949 29.9995  255 255 255
-9.24696 -10.211 33.6325  255 255 255
-66.4241 -0.842403 -28.0035  255 255 255
10.6649 -10.0514 31.1246  255 255 255
22.1074 -54.1809 27.5268  255 255 255
24.8698 62.664 -84.5749  255 255 255
24.8698 62.664 -84.5749  255 255 255
24.2061 60.9757 -85.2341  255 255 255
52.0713 65.5169 -102.949  255 255 255
8.28761 55.9877 -75.649  255 255 255
21.7462 54.7473 -89.6384  255 255 255
-74.6778 29.3473 -42.6423  255 255 255
-13.2372 -0.507215 23.3152  255 255 255
-22.2327 -12.9888 24.4484  255 255 255
54.8516 -16.9115 -7.66493  255 255 255
12.2741 -28.5374 34.5356  255 255 255
50.3782 -38.725 8.31324  255 255 255
54.0075 -47.1311 17.7085  255 255 255
12.0575 59.3649 -77.2699  255 255 255
52.3592 67.4137 -100.523  255 255 255
-20.6498 51.8552 -58.0081  255 255 255
-13.4709 52.0273 -64.2596  255 255 255
19.1065 56.213 -85.2621  255 255 255
2.20573 52.314 -75.7024  255 255 255
20.588 51.2439 -91.0658  255 255 255
-5.30649 14.3127 -48.0773  255 255 255
26.7548 10.44 -44.6321  255 255 255
-71.865 2.74809 -31.4822  255 255 255
-64.201 -2.49105 -25.1405  255 255 255
3.58485 -7.89622 33.6054  255 255 255
51.5217 -15.3693 -14.6257  255 255 255
33.7416 -38.3803 10.087  255 255 255
47.1798 -42.0288 12.2324  255 255 255
56.738 -43.5225 13.4297  255 255 255
27.2301 -53.6753 26.5052  255 255 255
-0.869661 -58.6444 33.8311  255 255 255
-75.3474 29.1124 -43.7734  255 255 255
23.9127 35.5881 -74.6753  255 255 255
49.6607 20.2948 -36.679  255 255 255
-6.40536 19.6904 -53.7335  255 255 255
-71.6089 18.7101 -49.2793  255 255 255
48.929 8.87975 -6.28292  255 255 255
-75.7765 9.70438 -38.4991  255 255 255
-22.1045 8.20732 -39.8757  255 255 255
-66.3624 0.167988 -28.3514  255 255 255
-7.92247 -4.26867 30.5507  255 255 255
-7.25746 -8.58887 33.568  255 255 255
50.0297 -11.9741 -15.035  255 255 255
-21.9667 -12.6473 24.2108  255 255 255
52.4771 -12.9547 -11.3167  255 255 255
52.2378 -12.9582 -10.6589  255 255 255
-26.8324 -18.617 26.629  255 255 255
-3.42086 -38.8073 32.483  255 255 255
58.4772 -43.6503 13.5593  255 255 255
22.4759 -54.4312 27.2884  255 255 255
-70.9083 2.56725 -31.3716  255 255 255
20.6622 53.8842 -88.4798  255 255 255
-5.16566 -22.7568 34.65  255 255 255
-38.623 13.3645 -45.0857  255 255 255
43.8119 -46.8011 17.9518  255 255 255
19.6292 36.0136 -73.7562  255 255 255
45.2737 -45.986 16.5862  255 255 255
-73.7181 28.5501 -43.042  255 255 255
46.908 -44.5892 15.2718  255 255 255
41.6378 -29.7177 -2.01267  255 255 255
-38.5589 7.17075 -38.0464  255 255 255
6.93812 0.0425844 24.3605  255 255 255
50.2609 -14.9562 -18.0078  255 255 255
16.2903 -29.2268 35.0788  255 255 255
-3.02477 14.335 -47.953  255 255 255
-6.97547 -17.6725 35.2645  255 255 255
-34.307 3.38817 -34.2833  255 255 255
-12.6779 -0.675263 24.1026  255 255 255
45.5564 -47.0577 17.9966  255 255 255
14.9933 -56.8686 30.8301  255 255 255
23.9798 28.1652 -65.899  255 255 255
23.9798 28.1652 -65.899  255 255 255
-19.9981 -3.12235 12.8876  255 255 255
51.9465 -15.8488 -14.8707  255 255 255
49.7485 -39.0578 8.32547  255 255 255
-27.5668 28.0935 -62.546  255 255 255
-3.36848 22.5377 -57.7091  255 255 255
-3.46373 15.7759 -50.1592  255 255 255
24.4723 6.56935 -40.9341  255 255 255
-3.24606 -8.41499 34.3035  255 255 255
-27.7446 -9.99807 16.6398  255 255 255
-54.0902 -13.0664 -13.8407  255 255 255
20.9333 -12.646 20.0164  255 255 255
11.7764 -14.3539 31.4456  255 255 255
22.4229 41.8761 -82.22  255 255 255
47.5376 22.5811 -39.266  255 255 255
-45.2212 -25.052 -0.929675  255 255 255
49.8538 -39.5786 9.71694  255 255 255
50.1844 -41.6074 11.1964  255 255 255
-11.716 -10.4613 32.399  255 255 255
-62.8099 -13.4955 -13.5905  255 255 255
-0.875032 -58.5691 34.0659  255 255 255
-0.949113 -58.2299 33.8637  255 255 255
46.1469 26.8401 -40.9866  255 255 255
49.025 -14.0109 -19.5883  255 255 255
49.0164 -42.4166 12.02  255 255 255
3.49858 50.2025 -79.0552  255 255 255
-7.96599 13.7227 -47.0977  255 255 255
54.5585 -13.5175 -7.18698  255 255 255
-8.70531 -16.9527 34.6439  255 255 255
48.0555 -41.0172 10.825  255 255 255
33.9055 -49.7773 21.7369  255 255 255
20.3095 40.9572 -78.9834  255 255 255
51.0926 -8.33579 -11.5232  255 255 255
5.92551 -18.3768 34.7191  255 255 255
46.822 23.9181 -41.2871  255 255 255
-44.6898 -8.12896 -20.1907  255 255 255
29.7822 15.7569 -51.1306  255 255 255
-73.4016 3.28523 -31.9533  255 255 255
6.34215 -12.7564 34.2777  255 255 255
1.92223 -30.73 38.0385  255 255 255
-36.2555 -52.1274 28.9759  255 255 255
15.7523 34.8819 -72.9628  255 255 255
-71.2453 3.34408 -32.8491  255 255 255
7.88751 -42.1099 24.6293  255 255 255
-31.953 -49.6103 25.8343  255 255 255
30.0929 14.3487 -49.523  255 255 255
31.6451 13.4366 -49.1274  255 255 255
34.0747 -46.9801 18.2921  255 255 255
-32.1138 -50.1552 26.7743  255 255 255
-17.3786 -24.8099 32.9871  255 255 255
48.4486 37.8024 -28.6441  255 255 255
-72.4471 27.7968 -45.4721  255 255 255
-51.1939 33.1403 -51.2594  255 255 255
-72.7451 7.79793 -36.8299  255 255 255
-40.6419 15.5663 -47.6473  255 255 255
-57.2504 14.6822 -44.9604  255 255 255
-61.2267 30.9856 -46.3123  255 255 255
-70.1549 34.3078 -42.297  255 255 255
-52.3663 -6.70585 -22.2754  255 255 255
-62.2015 36.3389 -39.505  255 255 255
-69.757 25.2859 -45.1964  255 255 255
-74.7914 7.67524 -36.851  255 255 255
-63.0347 -10.3814 -17.289  255 255 255
38.671 -43.3571 13.2471  255 255 255
-6.0717 -58.4237 34.0537  255 255 255
-29.2467 -56.2376 33.3562  255 255 255
22.7951 -19.3502 23.1467  255 255 255
-37.6756 -50.0776 26.6301  255 255 255
2.53709 -12.4488 35.3184  255 255 255
-68.4727 -54.8837 36.2855  255 255 255
11.8003 -11.8209 31.0001  255 255 255
-33.4591 -24.8655 9.94522  255 255 255
-14.8155 -26.4122 34.6175  255 255 255
-3.84628 -41.4482 30.3202  255 255 255
-23.4529 -21.8945 30.2632  255 255 255
10.199 -28.4024 34.8287  255 255 255
-4.84227 -31.463 39.4945  255 255 255
-32.8301 -55.0344 32.1807  255 255 255
3.53506 -22.2503 34.414  255 255 255
-4.40156 -36.2259 35.8849  255 255 255
2.16511 -40.9077 30.283  255 255 255
-6.21906 -30.5335 38.6415  255 255 255
-67.0499 -54.1779 34.9192  255 255 255
6.44649 -31.9517 39.3773  255 255 255
-1.71424 -16.7934 36.1617  255 255 255
-37.9554 -57.879 36.0043  255 255 255
1.57638 -15.7094 36.0989  255 255 255
2.69573 -14.7032 35.6766  255 255 255
-23.9182 -56.886 34.2294  255 255 255
-14.8155 -26.4122 34.6175  255 255 255
11.8054 -11.8297 30.9421  255 255 255
-82.6678 -49.4587 31.7423  255 255 255
25.0155 -9.55897 11.3212  255 255 255
8.34082 -35.7898 33.0059  255 255 255
6.29479 -12.6022 34.2064  255 255 255
-1.67679 -19.5862 35.8729  255 255 255
-0.859131 -13.3487 35.8748  255 255 255
0.528516 -25.0284 36.427  255 255 255
-33.9578 -51.5495 28.3606  255 255 255
49.9308 -13.811 -18.1959  255 255 255
2.87692 -18.2209 35.6293  255 255 255
-30.2797 -55.6073 32.2455  255 255 255
3.70496 -14.4961 35.5298  255 255 255
10.7223 -14.7077 32.448  255 255 255
-33.0856 -57.5699 34.9797  255 255 255
-27.267 -54.9063 31.9251  255 255 255
3.37287 -12.8791 35.2567  255 255 255
-38.2042 -52.291 29.4477  255 255 255
-4.4038 -16.2981 35.8924  255 255 255
-15.0969 -28.4701 37.228  255 255 255
-6.45997 -29.5271 37.4021  255 255 255
-4.72486 -31.664 39.6119  255 255 255
55.8585 -44.0169 13.9378  255 255 255
-28.8239 -56.4474 33.4172  255 255 255
-22.7777 -56.7916 33.3524  255 255 255
12.2448 -19.4779 30.9169  255 255 255
8.84856 -25.839 34.2118  255 255 255
-75.657 -45.1751 23.1454  255 255 255
12.7317 -31.0759 33.986  255 255 255
8.18851 -37.3029 31.4402  255 255 255
50.1553 -40.3274 9.81878  255 255 255
-30.0586 -56.2716 33.1505  255 255 255
-19.4076 -58.1446 34.8317  255 255 255
54.1691 -17.1626 -10.2412  255 255 255
14.7011 -23.6982 31.0851  255 255 255
12.9326 -28.9734 34.9306  255 255 255
-4.57732 -41.5218 30.4596  255 255 255
-27.9498 -54.7634 31.5179  255 255 255
50.2038 -40.5898 10.8258  255 255 255
6.85143 -19.6365 34.2365  255 255 255
6.59666 -19.4681 34.3505  255 255 255
6.84128 -20.2871 33.989  255 255 255
10.2686 -32.9649 34.0803  255 255 255
-29.4949 -56.4604 33.5748  255 255 255
-26.425 -53.8941 30.6396  255 255 255
6.43192 -22.2674 33.6532  255 255 255
-4.64974 -31.3401 39.4602  255 255 255
-20.6005 -55.6338 31.8551  255 255 255
-12.7646 -18.49 32.3866  255 255 255
-6.0356 -18.1728 35.5446  255 255 255
12.0418 -12.9857 30.9268  255 255 255
15.5694 -28.3066 34.0475  255 255 255
1.61273 -32.2966 37.79  255 255 255
-26.5375 -56.8262 33.6774  255 255 255
-22.7827 -57.3473 33.9278  255 255 255
-22.7836 -57.3414 33.9238  255 255 255
-44.9988 -31.7638 6.59019  255 255 255
8.40557 -29.5749 36.2178  255 255 255
1.92308 -30.7176 38.0641  255 255 255
-32.8696 -49.2234 25.7452  255 255 255
4.86742 -42.1306 29.3828  255 255 255
53.1143 -40.5698 10.2479  255 255 255
-27.6917 -53.3761 29.9189  255 255 255
11.2072 -11.9332 31.3485  255 255 255
19.515 -20.6426 26.7582  255 255 255
0.202854 -23.7181 35.0356  255 255 255
9.33375 -29.4262 36.1325  255 255 255
12.5812 -38.7481 27.4921  255 255 255
6.7542 -38.9289 31.6833  255 255 255
13.0972 -39.1814 26.5697  255 255 255
1.77667 -40.4149 30.8719  255 255 255
7.21566 -40.6123 29.4568  255 255 255
49.9257 -41.1035 10.2643  255 255 255
-21.8968 -55.807 32.3284  255 255 255
14.7142 -11.9353 28.2286  255 255 255
14.6706 -11.9313 28.512  255 255 255
15.7741 -11.9514 26.932  255 255 255
6.79667 -32.4295 38.5316  255 255 255
-26.6869 -56.1616 32.9652  255 255 255
-23.6101 -57.1766 33.7339  255 255 255
-7.88684 -30.2488 38.2369  255 255 255
-33.622 -52.2471 29.0199  255 255 255
20.7982 -20.4364 25.1033  255 255 255
-23.2812 -56.7646 33.4576  255 255 255
-5.07322 -30.883 38.9979  255 255 255
15.3812 -33.9229 29.9334  255 255 255
20.8825 -32.0179 23.2622  255 255 255
17.378 -31.9023 29.765  255 255 255
-25.3193 -55.1096 31.5423  255 255 255
41.417 -29.9985 -1.91127  255 255 255
-35.6588 -51.8195 28.5608  255 255 255
6.63774 -57.9867 32.4134  255 255 255
36.8096 -42.7438 13.6684  255 255 255
43.085 -48.5149 20.5484  255 255 255
5.18699 -15.4405 35.1808  255 255 255
-22.786 -55.3779 31.9008  255 255 255
50.0623 -10.8212 -13.4879  255 255 255
0.678619 -17.9354 36.0269  255 255 255
-26.6087 -54.979 31.6665  255 255 255
58.7588 -25.5589 -5.62642  255 255 255
3.75534 -15.3564 35.4671  255 255 255
34.2414 71.8556 -83.5145  255 255 255
42.898 75.1112 -87.0325  255 255 255
24.0446 59.7666 -86.3535  255 255 255
0.600677 61.4647 -68.4103  255 255 255
23.2297 58.5786 -86.6788  255 255 255
43.6347 60.9956 -99.7907  255 255 255
50.2117 67.9875 -98.4489  255 255 255
35.3803 73.7542 -82.4692  255 255 255
25.6855 71.7906 -77.4899  255 255 255
23.2729 57.3372 -87.1015  255 255 255
-7.54062 66.3381 -56.2859  255 255 255
48.6234 61.8691 -103.214  255 255 255
64.3077 72.3292 -105.62  255 255 255
53.5368 70.2367 -98.9454  255 255 255
60.6827 64.85 -109.067  255 255 255
6.18968 60.7854 -71.9966  255 255 255
57.0686 62.7825 -106.353  255 255 255
8.27937 54.6302 -77.1488  255 255 255
22.6847 60.5017 -85.2058  255 255 255
2.70146 53.5828 -75.0829  255 255 255
60.9292 64.4632 -109.48  255 255 255
46.8784 61.273 -101.866  255 255 255
27.4875 66.8377 -76.3979  255 255 255
27.7442 67.5269 -78.4021  255 255 255
10.9452 62.2412 -73.5096  255 255 255
42.68 50.1604 -92.2602  255 255 255
7.79035 62.6943 -70.5963  255 255 255
61.1121 66.1562 -111.813  255 255 255
60.0979 66.1671 -111.448  255 255 255
12.6975 65.5932 -71.8702  255 255 255
-27.004 52.7449 -53.22  255 255 255
-13.0828 54.1033 -62.4815  255 255 255
-39.8944 52.9629 -42.7373  255 255 255
-17.6144 53.933 -59.3318  255 255 255
-38.7212 44.4061 -51.0198  255 255 255
-17.2808 61.651 -53.0633  255 255 255
-50.6169 47.5938 -39.3486  255 255 255
-5.21365 -9.23945 34.3643  255 255 255
-3.43686 -10.321 35.0637  255 255 255
-9.83652 -0.0106683 25.2977  255 255 255
-22.3695 -6.94965 17.4973  255 255 255
-1.96056 -14.192 36.0481  255 255 255
-10.0523 -6.3909 31.0321  255 255 255
-13.5654 -3.26518 25.9447  255 255 255
-12.5294 -3.89365 27.7187  255 255 255
-15.6097 -26.8936 35.2515  255 255 255
-23.4968 -21.5808 29.8954  255 255 255
-7.26093 -29.0869 37.0142  255 255 255
-2.5046 -30.3699 37.9987  255 255 255
-7.80688 -2.41829 27.133  255 255 255
43.9324 67.1414 -94.249  255 255 255
-12.0079 56.7093 -61.3647  255 255 255
-36.65 5.04276 -35.8314  255 255 255
-10.2577 -19.0187 33.6837  255 255 255
12.6979 -11.476 29.9408  255 255 255
5.99176 49.9626 -80.5812  255 255 255
2.76604 58.5714 -70.1821  255 255 255
44.0954 68.0077 -93.8565  255 255 255
53.4633 -19.3011 -13.2354  255 255 255
45.5216 27.2034 -42.1273  255 255 255
-81.1419 18.0814 -43.1422  255 255 255
-55.6768 -49.9338 28.3368  255 255 255
-61.7419 -52.0462 31.762  255 255 255
53.7053 -20.1917 -13.0124  255 255 255
-6.18575 65.8779 -57.5984  255 255 255
48.5346 34.3283 -30.2412  255 255 255
-55.6768 -49.9338 28.3368  255 255 255
17.1585 67.1397 -74.2426  255 255 255
-51.2927 -3.25229 -25.5827  255 255 255
-17.5583 55.144 -58.3947  255 255 255
40.0794 77.7836 -83.6477  255 255 255
48.5927 -0.396968 -12.3094  255 255 255
-51.8005 -3.37334 -24.2996  255 255 255
-24.7549 -56.1 32.7737  255 255 255
-45.0152 -27.1195 1.26691  255 255 255
-15.0341 -11.0963 29.9288  255 255 255
-19.7355 -24.6775 33.0873  255 255 255
-24.0011 -32.8067 23.4284  255 255 255
-57.4439 -17.1211 -9.2849  255 255 255
-62.333 -7.24658 -20.7405  255 255 255
22.1657 20.9184 -57.3744  255 255 255
49.7832 -14.3957 -18.5484  255 255 255
-45.1892 -6.78424 -21.7047  255 255 255
45.5666 27.25 -42.3646  255 255 255
6.8121 -29.5202 36.2649  255 255 255
-21.6416 -22.4597 30.6242  255 255 255
-26.3008 -52.9325 29.4766  255 255 255
-56.2612 -21.7202 -5.06698  255 255 255
-31.6296 -51.0046 27.5929  255 255 255
-19.8991 -59.307 36.1369  255 255 255
-24.5889 -55.7336 32.4762  255 255 255
-33.6487 -51.7502 28.6383  255 255 255
-29.5167 -53.195 29.7731  255 255 255
-27.8509 -53.645 30.2837  255 255 255
46.3187 -48.7189 19.019  255 255 255
-44.8711 40.2506 -50.0357  255 255 255
0.734983 -32.3321 37.9113  255 255 255
-1.94302 -18.9483 35.9792  255 255 255
-30.8592 57.6836 -45.6202  255 255 255
-15.8931 -15.6216 30.0117  255 255 255
32.1798 72.0597 -81.7651  255 255 255
-52.9047 -6.80628 -21.5302  255 255 255
4.16684 -6.23833 32.0604  255 255 255
-6.87662 -5.90007 32.2276  255 255 255
-45.6757 -26.851 1.0977  255 255 255
23.2529 -18.1954 21.9693  255 255 255
41.913 62.4875 -97.229  255 255 255
-15.8695 -14.3841 29.8492  255 255 255
-60.4982 -3.3676 -24.3847  255 255 255
49.0211 7.19481 -5.48423  255 255 255
33.5187 70.9338 -83.5592  255 255 255
50.1425 21.8899 -34.4971  255 255 255
40.471 -31.8454 0.264849  255 255 255
48.2328 -12.5289 -20.8435  255 255 255
-2.43142 -11.925 35.6825  255 255 255
-40.4301 -37.7619 12.9121  255 255 255
2.51095 -47.35 30.717  255 255 255
53.7624 -20.1977 -13.0543  255 255 255
14.2954 65.3423 -74.3105  255 255 255
3.64497 -8.31463 33.7099  255 255 255
49.6977 23.7377 -34.4237  255 255 255
0.393249 -24.542 35.8388  255 255 255
2.39972 50.2506 -78.0195  255 255 255
-10.322 -0.596494 26.0211  255 255 255
49.7546 -5.68194 -13.0608  255 255 255
-77.7839 11.5333 -41.0466  255 255 255
-48.0052 41.5752 -47.0515  255 255 255
-33.8989 24.4516 -57.7816  255 255 255
48.0918 35.0335 -75.8084  255 255 255
-47.493 30.0935 -59.0233  255 255 255
0.532204 60.0428 -67.8838  255 255 255
49.2042 67.7599 -97.9574  255 255 255
51.0581 66.3681 -100.175  255 255 255
-1.9636 58.9628 -67.1395  255 255 255
-33.9101 47.6639 -52.3846  255 255 255
-13.3236 51.6677 -64.8834  255 255 255
26.9701 58.3407 -90.4054  255 255 255
-33.2804 34.3666 -65.1439  255 255 255
-48.3274 29.2253 -59.7573  255 255 255
25.8168 54.9564 -91.557  255 255 255
-53.9805 39.4761 -43.9816  255 255 255
28.8 61.7969 -88.2966  255 255 255
26.971 58.3411 -90.3953  255 255 255
-7.31348 49.1161 -71.4804  255 255 255
-35.3988 16.8641 -49.401  255 255 255
19.4573 57.4066 -85.2929  255 255 255
-27.1914 48.3345 -56.1888  255 255 255
45.2729 60.8945 -100.935  255 255 255
-5.13639 59.0379 -64.4782  255 255 255
24.7234 54.2336 -91.3216  255 255 255
3.82379 53.3587 -76.0646  255 255 255
-54.1669 41.4803 -41.6076  255 255 255
-15.4381 54.7322 -60.4808  255 255 255
-22.2602 54.6035 -55.0367  255 255 255
-15.5187 53.7756 -61.1181  255 255 255
-13.2559 57.5687 -59.4567  255 255 255
28.8694 62.6315 -86.8712  255 255 255
49.9247 62.3651 -103.568  255 255 255
45.2765 64.3829 -97.858  255 255 255
-26.4411 51.9415 -54.4038  255 255 255
-17.6046 53.9427 -59.3486  255 255 255
-24.4069 51.6094 -56.1599  255 255 255
-29.6101 45.4873 -57.6866  255 255 255
-37.1574 33.1791 -63.415  255 255 255
-66.2548 42.5862 -31.32  255 255 255
35.1348 74.6024 -81.7678  255 255 255
18.5991 50.0587 -89.4604  255 255 255
50.1331 62.929 -102.891  255 255 255
1.01362 59.8515 -68.4817  255 255 255
48.9817 60.5421 -103.818  255 255 255
13.5113 -17.3565 30.2137  255 255 255
-24.0755 53.9889 -54.1292  255 255 255
49.9329 -7.78963 -14.0341  255 255 255
48.0185 -5.91557 -17.2254  255 255 255
52.528 -18.6297 -15.0625  255 255 255
23.8062 -18.8527 22.5507  255 255 255
-27.5054 -14.572 22.006  255 255 255
21.4101 -20.891 25.1102  255 255 255
47.215 -2.5953 -16.9581  255 255 255
-1.77938 -20.2562 35.6617  255 255 255
52.3165 -16.955 -14.1951  255 255 255
-58.3741 -13.333 -13.8279  255 255 255
-21.722 -4.77261 14.7383  255 255 255
-26.1936 -10.5485 17.059  255 255 255
10.5307 -2.7916 25.7977  255 255 255
-6.17247 -9.18375 33.6876  255 255 255
-4.65966 -30.9402 39.0264  255 255 255
12.0688 -4.42787 26.0972  255 255 255
22.1336 -19.3368 23.2874  255 255 255
12.0839 -23.0081 32.657  255 255 255
11.7636 -6.81399 28.7114  255 255 255
12.3238 -21.8664 31.5151  255 255 255
6.49789 -31.5639 38.4639  255 255 255
-18.6725 -25.0977 33.4061  255 255 255
10.5777 -23.3376 33.2451  255 255 255
-6.56207 -7.11865 32.8662  255 255 255
7.22373 -17.8147 34.2241  255 255 255
-27.8256 -52.1131 28.5226  255 255 255
7.98481 -17.8698 33.869  255 255 255
-22.6706 -8.01849 18.8148  255 255 255
3.95033 -9.62453 34.2  255 255 255
18.6716 -25.5448 30.5913  255 255 255
6.98362 -24.4107 35.0074  255 255 255
12.1138 -7.40921 28.6549  255 255 255
19.6416 17.631 -53.1783  255 255 255
19.0339 -17.737 26.1848  255 255 255
-7.36604 -23.584 35.3922  255 255 255
-46.8922 12.1369 -44.4197  255 255 255
10.5818 -1.99847 24.9591  255 255 255
15.1449 -11.4182 27.6209  255 255 255
-54.8201 -27.5217 2.23865  255 255 255
2.81395 -7.59694 33.4285  255 255 255
0.83779 -30.4072 37.7566  255 255 255
5.07584 -10.2383 33.8847  255 255 255
-5.47156 -28.8643 36.6748  255 255 255
3.01099 -11.518 35.0411  255 255 255
-41.0364 16.0564 -47.6943  255 255 255
5.46632 -6.61914 32.135  255 255 255
11.3393 -8.85204 29.8621  255 255 255
12.8641 -22.0353 31.8358  255 255 255
12.2419 -9.04384 29.3063  255 255 255
-15.5948 -26.9016 35.3413  255 255 255
-6.46911 -29.5112 37.5417  255 255 255
-22.5976 -31.348 26.4481  255 255 255
-24.4969 -18.9953 27.0834  255 255 255
5.16979 -24.8606 35.8478  255 255 255
8.32973 -10.7817 32.5761  255 255 255
12.5049 -4.8696 25.9868  255 255 255
0.971434 -23.8097 35.0195  255 255 255
8.29192 -6.89436 30.6809  255 255 255
10.0866 -8.61342 30.8197  255 255 255
20.7929 -21.1758 25.4028  255 255 255
9.24538 -12.8496 32.7439  255 255 255
14.8329 -17.0165 29.0007  255 255 255
8.99808 -26.1376 33.9848  255 255 255
21.2354 -20.0029 24.2528  255 255 255
-2.50785 -29.445 37.0621  255 255 255
10.6421 -23.0627 32.9549  255 255 255
6.51745 -22.2089 33.5179  255 255 255
-4.23885 -23.9894 35.7005  255 255 255
23.3852 -22.4951 26.0751  255 255 255
7.20247 -11.4106 33.4206  255 255 255
-27.3982 -51.7752 28.3303  255 255 255
6.54101 -24.4717 34.9799  255 255 255
-13.3895 -35.0783 31.9304  255 255 255
13.9476 -14.0807 29.5993  255 255 255
6.82564 -23.8687 34.3838  255 255 255
6.49789 -31.5639 38.4639  255 255 255
12.8526 -3.58464 24.2105  255 255 255
14.8499 -17.0061 28.8692  255 255 255
-7.49549 -29.1123 36.9634  255 255 255
-23.8712 -23.075 31.5867  255 255 255
-27.4615 -51.9915 28.415  255 255 255
14.4635 -28.0771 33.8436  255 255 255
-3.31984 -29.4567 37.2147  255 255 255
-1.68662 -24.6736 36.1879  255 255 255
22.8087 -21.3418 25.3163  255 255 255
13.6648 -6.54953 26.4951  255 255 255
-4.23885 -23.9894 35.7005  255 255 255
19.9637 -14.6209 22.5447  255 255 255
15.0807 -15.6204 28.5345  255 255 255
-22.532 -22.3767 30.4707  255 255 255
9.50078 -0.403139 23.2238  255 255 255
-28.2797 -52.1952 28.6121  255 255 255
18.2527 -17.7798 26.2825  255 255 255
14.8695 -6.05427 24.2192  255 255 255
15.6729 -8.26979 24.9082  255 255 255
2.102 -14.5585 35.823  255 255 255
12.1922 -5.70579 26.9886  255 255 255
19.6376 -6.18313 11.8658  255 255 255
0.532841 -25.025 36.4237  255 255 255
7.08322 -29.9666 36.7579  255 255 255
24.2214 -18.4735 22.1089  255 255 255
-18.1463 -24.5486 32.7591  255 255 255
-12.224 -21.8036 33.8502  255 255 255
21.2354 -20.0029 24.2528  255 255 255
-2.37254 -29.6785 37.2946  255 255 255
-48.9504 -10.1555 -17.6643  255 255 255
14.5893 -11.2648 28.3807  255 255 255
15.3326 -13.7151 28.0972  255 255 255
23.082 -23.9818 28.1118  255 255 255
10.5537 -29.5252 35.8424  255 255 255
-4.82627 -29.7902 37.4625  255 255 255
-23.9339 -22.4434 31.004  255 255 255
8.65638 -7.32564 31.1402  255 255 255
13.1617 -9.16419 28.7594  255 255 255
12.1138 -7.40921 28.6549  255 255 255
5.74922 -29.4268 36.0346  255 255 255
18.1185 -18.0759 26.7188  255 255 255
8.64886 -7.32127 31.1936  255 255 255
23.0303 -20.096 24.0021  255 255 255
15.7558 -26.9927 32.6288  255 255 255
-2.72634 -33.7901 37.0693  255 255 255
2.44378 -32.3927 37.7236  255 255 255
-5.54286 -18.3511 35.6402  255 255 255
-12.3236 -19.7373 32.4921  255 255 255
12.9799 -15.5846 30.7761  255 255 255
6.05269 -14.4674 34.8584  255 255 255
47.0649 8.9228 -10.0332  255 255 255
-5.73057 -23.3184 34.7321  255 255 255
17.086 -26.3483 31.7892  255 255 255
-69.5791 -44.9212 23.545  255 255 255
23.8515 -34.7478 19.0163  255 255 255
16.0201 -28.9947 34.784  255 255 255
-9.33962 -23.0286 35.0398  255 255 255
50.6642 -7.90933 -12.4971  255 255 255
8.52958 -3.56639 28.3985  255 255 255
16.038 -27.64 33.3206  255 255 255
24.7911 -14.9113 17.9323  255 255 255
-7.59945 -22.6034 34.3019  255 255 255
18.8013 -17.6736 25.8787  255 255 255
24.701 -8.66288 10.4108  255 255 255
2.82438 -29.4697 36.4529  255 255 255
18.5101 -35.0982 24.8609  255 255 255
2.07486 -24.7658 35.9196  255 255 255
-17.907 -25.4456 33.7056  255 255 255
-64.4515 -9.77606 -17.7782  255 255 255
15.2457 -10.6261 27.2898  255 255 255
12.5518 -33.5597 31.846  255 255 255
6.53817 -12.2585 33.8887  255 255 255
4.7419 -19.7044 34.8375  255 255 255
-21.8652 -8.43145 19.1295  255 255 255
-30.5056 20.262 -53.2835  255 255 255
10.6691 -8.87414 30.2829  255 255 255
-1.44211 -34.35 36.0972  255 255 255
-6.65587 -30.184 38.1615  255 255 255
53.4312 -15.1578 -11.0508  255 255 255
48.4154 -12.8101 -19.3568  255 255 255
10.1298 -22.3267 32.2808  255 255 255
22.8681 -23.5094 27.7257  255 255 255
10.9365 -13.514 32.159  255 255 255
47.0531 8.91559 -9.95148  255 255 255
16.0285 -20.2828 29.5415  255 255 255
56.3985 -15.3619 -4.53409  255 255 255
-38.087 -51.882 28.8648  255 255 255
13.9894 -13.0712 29.4331  255 255 255
10.3084 -32.5957 34.6761  255 255 255
-16.8489 -16.0078 28.856  255 255 255
14.652 -16.506 29.0654  255 255 255
10.8939 -5.35502 28.2159  255 255 255
23.4571 -19.3453 23.2047  255 255 255
10.8939 -5.35502 28.2159  255 255 255
-33.3569 -48.7095 24.8117  255 255 255
-26.1483 -5.79455 11.8364  255 255 255
-31.6541 22.0682 -55.2936  255 255 255
-10.1501 -22.7605 34.7739  255 255 255
11.1605 -10.2213 30.8392  255 255 255
3.94875 -13.9242 34.7568  255 255 255
2.69989 -13.948 35.1322  255 255 255
9.47966 -9.88855 31.5143  255 255 255
-1.16788 -29.6222 37.2171  255 255 255
22.2855 -31.9207 21.0865  255 255 255
23.467 -18.4721 22.2249  255 255 255
15.1673 -15.2284 28.2199  255 255 255
-65.3854 -8.5682 -19.868  255 255 255
-11.2475 -22.0977 34.2164  255 255 255
23.2972 -17.8431 21.534  255 255 255
-0.281999 -30.5102 38.0519  255 255 255
16.6261 -25.1734 30.6288  255 255 255
7.53493 -13.9736 33.8241  255 255 255
7.00517 -17.0879 34.4151  255 255 255
26.5491 -16.0151 18.3311  255 255 255
15.3774 -15.7354 28.2897  255 255 255
22.7377 -23.339 27.5521  255 255 255
-4.31608 -7.7131 33.8438  255 255 255
7.1909 -23.7835 34.0562  255 255 255
6.13264 -45.6675 30.6157  255 255 255
-5.90873 -24.0054 35.9398  255 255 255
-9.18914 -29.2587 37.378  255 255 255
-3.28213 -13.151 35.7461  255 255 255
13.438 -15.5273 30.2765  255 255 255
6.31832 -23.8899 34.5294  255 255 255
-10.6148 -26.3722 34.697  255 255 255
10.6691 -8.87414 30.2829  255 255 255
-22.6393 -6.58761 16.9666  255 255 255
6.08314 -24.0469 34.9166  255 255 255
20.9204 19.5761 -56.0175  255 255 255
50.0479 1.57338 -7.45341  255 255 255
49.9967 1.56052 -7.3026  255 255 255
3.96424 2.69283 21.8518  255 255 255
3.33622 2.5229 21.6229  255 255 255
-0.0624585 2.62897 20.8965  255 255 255
-0.0555322 2.20291 20.1089  255 255 255
48.8058 0.012117 -11.8676  255 255 255
-1.01367 -8.65714 34.6158  255 255 255
54.225 -18.8019 -11.211  255 255 255
6.48186 -13.5887 34.3136  255 255 255
2.49715 -14.5508 35.6921  255 255 255
-66.0362 -8.90846 -18.5436  255 255 255
3.80698 -27.0937 35.8787  255 255 255
-17.5473 -25.3546 33.6639  255 255 255
41.5761 -44.5999 14.9262  255 255 255
41.4344 -49.213 23.1039  255 255 255
2.65225 2.72796 21.4088  255 255 255
5.39401 1.54261 22.2057  255 255 255
-2.94596 1.26914 23.7708  255 255 255
-5.13063 1.50004 23.0243  255 255 255
21.247 -3.21237 4.20463  255 255 255
24.852 -9.1547 10.9223  255 255 255
5.48923 -8.78684 33.2395  255 255 255
54.5726 -13.5165 -7.2045  255 255 255
48.532 -12.4487 -20.3449  255 255 255
-43.3895 -6.91399 -21.6301  255 255 255
54.7484 -20.1071 -11.3861  255 255 255
7.95531 -24.2132 34.6394  255 255 255
-12.8781 -26.7109 34.8412  255 255 255
47.6508 -40.1966 9.25235  255 255 255
35.7289 -51.1943 23.7513  255 255 255
-34.3531 -48.9494 25.2167  255 255 255
-8.50483 -2.49646 28.9839  255 255 255
54.9991 -18.9705 -9.7955  255 255 255
-35.3932 -48.8597 25.1766  255 255 255
-33.3916 12.2875 -45.374  255 255 255
55.2766 -28.7506 -3.94451  255 255 255
45.1642 -40.5556 10.0248  255 255 255
51.2766 -10.799 -12.5482  255 255 255
-15.8068 -8.24686 28.0984  255 255 255
-10.7645 -10.7251 32.6823  255 255 255
2.40884 -16.3552 35.9901  255 255 255
-4.58212 1.28832 22.9409  255 255 255
3.83883 -21.0241 34.7092  255 255 255
12.6839 -23.7749 32.7152  255 255 255
-30.3863 -50.5444 27.1487  255 255 255
-14.9878 -13.6531 30.527  255 255 255
8.74105 -15.8703 33.6315  255 255 255
-62.7588 -11.3998 -15.966  255 255 255
-79.0742 30.4803 -31.622  255 255 255
-71.8686 32.1589 -35.7912  255 255 255
-54.9009 -22.7391 -2.74024  255 255 255
-42.3146 -5.04743 -24.2493  255 255 255
-7.19639 -25.353 36.2641  255 255 255
57.3449 -24.9704 -8.67286  255 255 255
-11.0305 -19.8167 33.3124  255 255 255
-5.69784 -18.9392 35.7784  255 255 255
50.7051 1.10273 -6.25127  255 255 255
-8.41242 -21.1309 34.2137  255 255 255
-8.95881 -15.4024 34.556  255 255 255
-11.9505 -20.3872 32.6213  255 255 255
52.6889 -10.9447 -8.99152  255 255 255
47.9937 12.1527 -6.07669  255 255 255
51.5105 18.8828 -33.9875  255 255 255
53.0933 -13.3618 -10.6476  255 255 255
-6.35322 -11.2422 34.5938  255 255 255
54.0635 -13.7792 -8.32715  255 255 255
-16.8337 54.1891 -59.8929  255 255 255
-9.78622 27.3594 -62.3534  255 255 255
-21.2115 9.18444 -41.3013  255 255 255
-34.4231 9.85793 -41.1688  255 255 255
-33.3997 8.41468 -38.1758  255 255 255
-3.64845 -7.62029 33.8924  255 255 255
-27.0812 53.9148 -53.0386  255 255 255
33.6435 67.3339 -86.7271  255 255 255
0.917071 -8.12963 34.133  255 255 255
-21.4355 10.6832 -42.8193  255 255 255
-40.7888 37.3906 -56.1393  255 255 255
-40.9707 15.3256 -47.46  255 255 255
-16.2285 -15.7605 29.5124  255 255 255
-5.46057 -16.8114 35.4915  255 255 255
-10.4071 45.4732 -72.4286  255 255 255
0.0589204 -11.9452 35.615  255 255 255
-10.4711 -8.97474 32.334  255 255 255
-31.8807 9.08968 -39.9608  255 255 255
-14.4118 -16.8047 31.3252  255 255 255
-74.414 11.3267 -40.5228  255 255 255
-105.472 -11.2349 -12.1683  255 255 255
-106.205 -12.1665 -12.408  255 255 255
-69.686 4.09417 -33.7498  255 255 255
0.539786 -14.2744 35.9789  255 255 255
-9.29314 -2.03821 27.8718  255 255 255
-19.1344 21.3919 -55.1689  255 255 255
-22.5876 -1.47719 6.50927  255 255 255
-5.16748 -14.5662 35.669  255 255 255
-6.21647 -13.4661 35.2079  255 255 255
-7.56876 -18.2518 35.0313  255 255 255
-5.45695 -16.8005 35.7582  255 255 255
-45.6061 40.0623 -49.7297  255 255 255
-10.1138 -16.913 34.0347  255 255 255
-38.3853 14.0504 -46.2646  255 255 255
-38.3387 14.0247 -46.2342  255 255 255
3.1464 -14.9935 35.7015  255 255 255
4.74706 -16.5031 35.2594  255 255 255
-2.72506 -20.2692 35.7901  255 255 255
26.3171 58.3401 -89.5205  255 255 255
-28.6351 -9.79867 16.5221  255 255 255
-13.5462 -9.21807 30.4618  255 255 255
3.59261 -22.5063 34.3955  255 255 255
51.1427 65.9369 -100.675  255 255 255
-8.73305 -21.8663 33.8353  255 255 255
-14.3619 -7.1669 28.7178  255 255 255
2.75123 -17.3644 36.1305  255 255 255
4.11101 -19.9393 34.8497  255 255 255
-13.4601 -19.4113 31.8464  255 255 255
56.889 -17.1115 -4.28671  255 255 255
-21.6002 53.6415 -56.3846  255 255 255
-22.472 -8.59871 19.2881  255 255 255
-6.45052 -23.5971 35.4005  255 255 255
-0.675982 -7.81008 33.9973  255 255 255
44.2171 -50.0191 20.7497  255 255 255
-24.4379 53.452 -54.3012  255 255 255
-1.27447 -7.60335 33.9688  255 255 255
7.30233 -15.5005 34.0601  255 255 255
13.4388 -21.8777 31.4167  255 255 255
-29.6448 37.5601 -64.6853  255 255 255
-29.7529 26.1364 -59.9563  255 255 255
-4.43278 -17.3751 35.8325  255 255 255
7.22957 -15.0461 34.1011  255 255 255
3.002 -17.8574 35.6277  255 255 255
49.5283 0.575196 -9.55723  255 255 255
52.4943 -5.45895 -6.72211  255 255 255
56.5943 -15.5137 -4.1858  255 255 255
-9.215 -18.3098 34.4001  255 255 255
-6.83167 -22.8649 34.5946  255 255 255
-17.3527 -24.8005 33.2142  255 255 255
-3.01469 -24.1467 35.7516  255 255 255
50.2799 -2.5524 -9.87271  255 255 255
7.11058 -20.489 33.8374  255 255 255
-22.9302 -23.3506 31.8326  255 255 255
47.0525 8.31723 -9.35839  255 255 255
5.69387 -19.0929 34.9079  255 255 255
-8.68436 -7.94878 32.4888  255 255 255
49.3478 6.61939 -5.99717  255 255 255
2.82027 -30.9846 38.1563  255 255 255
-73.2865 29.5291 -43.9554  255 255 255
-85.5789 32.0447 -25.2729  255 255 255
-85.4436 32.1081 -27.2617  255 255 255
-75.7121 29.3586 -42.3609  255 255 255
-29.4846 -9.83542 16.5375  255 255 255
19.3983 33.9079 -72.2866  255 255 255
18.1499 32.3142 -70.0876  255 255 255
25.4322 10.1657 -45.2117  255 255 255
8.32412 -9.29447 32.0325  255 255 255
8.33364 -9.29426 31.9513  255 255 255
10.9707 -10.5627 31.0922  255 255 255
8.74245 -12.8884 33.103  255 255 255
7.09581 -14.3307 34.0993  255 255 255
13.0482 -15.9452 30.6114  255 255 255
5.44287 -17.514 34.9804  255 255 255
4.74167 -20.2131 34.7946  255 255 255
24.1173 -16.8834 20.287  255 255 255
-16.5977 -26.1881 34.4193  255 255 255
12.6053 -23.1666 32.8792  255 255 255
17.0523 -25.5354 30.821  255 255 255
-27.8427 -55.9855 32.6413  255 255 255
-28.7556 -57.0834 34.0267  255 255 255
48.3553 20.2523 -40.0573  255 255 255
38.8472 -34.6571 3.54207  255 255 255
-0.551036 -7.77552 33.9059  255 255 255
20.5157 -22.1619 26.3919  255 255 255
22.9598 -23.0209 27.6932  255 255 255
5.44433 -9.98101 33.7582  255 255 255
5.62938 -10.9119 34.0302  255 255 255
4.71313 -12.2385 34.3639  255 255 255
3.7509 -7.00053 32.7995  255 255 255
13.6063 -10.3498 29.0144  255 255 255
-1.982 -20.0284 35.702  255 255 255
-3.9693 -7.69165 33.9276  255 255 255
6.68729 -15.438 34.4657  255 255 255
5.31049 -12.5283 34.6562  255 255 255
10.4696 -12.7628 31.9401  255 255 255
0.409868 -15.1512 36.0884  255 255 255
-1.75498 -18.3384 36.016  255 255 255
-7.36272 -22.3365 34.2101  255 255 255
-31.3722 19.0242 -51.9809  255 255 255
-6.75027 -17.5105 35.337  255 255 255
-74.0496 4.38938 -32.8039  255 255 255
-14.7138 -27.1825 35.6135  255 255 255
-12.7153 -27.8643 35.9591  255 255 255
-26.1004 -17.9245 26.2555  255 255 255
-51.6082 -6.60101 -21.5315  255 255 255
-73.8995 -57.5319 40.8428  255 255 255
-45.1442 -10.7904 -17.2264  255 255 255
-71.4635 4.46839 -33.5514  255 255 255
-51.7664 -5.98144 -22.3077  255 255 255
-74.7803 -51.647 30.6711  255 255 255
10.6649 -10.0514 31.1246  255 255 255
0.122939 61.046 -66.6291  255 255 255
4.63265 -17.2639 35.16  255 255 255
-81.1132 23.0407 -38.0865  255 255 255
0.483667 61.2648 -66.4164  255 255 255
14.7826 -27.434 33.095  255 255 255
-4.42951 -30.4468 38.2672  255 255 255
-43.58 47.9614 -44.4404  255 255 255
-28.093 15.3299 -47.3987  255 255 255
-1.98859 -20.0155 35.7408  255 255 255
-18.7624 -56.6385 33.0349  255 255 255
-3.1649 64.0705 -60.6915  255 255 255
-17.5409 -22.1176 31.7213  255 255 255
-5.77574 -10.4642 34.766  255 255 255
51.9804 -17.1784 -15.3082  255 255 255
-34.0987 -52.0299 28.7024  255 255 255
-19.2951 -59.4256 36.7113  255 255 255
28.5586 58.3351 -91.1174  255 255 255
26.2519 57.2741 -90.3775  255 255 255
-23.7648 53.8467 -54.3131  255 255 255
-27.8331 52.7716 -52.7378  255 255 255
47.8732 22.5791 -39.0892  255 255 255
4.39922 -14.0225 35.3462  255 255 255
-5.89329 -18.4125 35.5694  255 255 255
-20.6066 -58.5974 35.2859  255 255 255
1.01509 59.8498 -68.4845  255 255 255
-15.8618 55.4282 -59.1969  255 255 255
-15.8603 55.4943 -59.4149  255 255 255
21.2953 53.6929 -89.9724  255 255 255
43.3433 36.6318 -77.032  255 255 255
22.7316 -22.9562 27.2311  255 255 255
-11.9043 -21.7886 33.9322  255 255 255
0.183809 22.8887 -58.7453  255 255 255
-4.79074 16.494 -50.5158  255 255 255
-15.5803 -13.9287 30.0433  255 255 255
-17.2839 -18.8114 30.8839  255 255 255
-77.2023 -45.2371 24.1209  255 255 255
5.0467 55.4176 -75.565  255 255 255
-23.3239 55.1184 -54.1408  255 255 255
-46.727 42.405 -46.8537  255 255 255
50.3073 -38.8662 7.80343  255 255 255
49.3719 -38.1935 6.99915  255 255 255
-43.7337 48.1479 -43.9294  255 255 255
-53.8362 -3.56873 -24.7279  255 255 255
6.46719 -14.1465 34.4381  255 255 255
-60.6871 -12.301 -14.7243  255 255 255
20.6438 46.9275 -86.6441  255 255 255
46.822 23.9181 -41.2871  255 255 255
-3.54105 -5.87499 32.8492  255 255 255
-12.0624 -4.55596 28.5539  255 255 255
-2.11767 -8.04225 34.2367  255 255 255
-2.11767 -8.04225 34.2367  255 255 255
0.462616 -8.80329 34.5116  255 255 255
11.8804 -13.94 31.3501  255 255 255
51.4872 -16.2109 -16.0142  255 255 255
4.02213 -13.1193 35.0463  255 255 255
51.9785 -17.1789 -15.2278  255 255 255
-2.28197 -13.0581 35.8654  255 255 255
13.433 -16.1531 30.3092  255 255 255
48.842 -18.3677 -14.0074  255 255 255
17.0389 -18.9681 27.8768  255 255 255
1.49648 -16.8088 35.962  255 255 255
22.7407 -22.5917 26.7254  255 255 255
17.8061 -23.1157 28.1724  255 255 255
-21.6698 -12.9216 24.4595  255 255 255
3.74642 -21.9214 34.5264  255 255 255
1.44699 -21.4844 35.0937  255 255 255
-19.9298 -15.3514 27.0634  255 255 255
-19.9338 -15.3463 27.1477  255 255 255
-2.65254 -22.2415 35.0683  255 255 255
-15.1261 -19.6056 31.7159  255 255 255
-8.87825 -21.5832 33.8658  255 255 255
-23.2254 -22.2855 30.5737  255 255 255
-17.1612 -24.3096 32.4174  255 255 255
-17.9165 -25.1348 33.4999  255 255 255
-14.8331 -28.2709 36.8524  255 255 255
-4.71831 -31.6657 39.5928  255 255 255
52.419 -2.27116 -4.59943  255 255 255
53.778 -18.5625 -10.9066  255 255 255
57.6101 -20.9324 -3.61446  255 255 255
51.2838 -17.5546 -16.1555  255 255 255
4.95591 -16.0363 35.1744  255 255 255
17.974 -24.1759 29.4608  255 255 255
-14.9623 -21.6949 33.745  255 255 255
13.0186 -33.643 31.4962  255 255 255
-19.0603 -25.1028 33.4173  255 255 255
47.6132 9.61234 -8.54485  255 255 255
51.6924 -5.97692 -8.85833  255 255 255
51.5291 -13.0377 -12.2029  255 255 255
53.1885 -18.9422 -13.5632  255 255 255
-2.34692 -18.4258 35.8878  255 255 255
-22.2223 -24.1706 32.3256  255 255 255
6.59729 -57.4984 31.7417  255 255 255
50.3047 -6.79917 -12.7096  255 255 255
50.508 -9.05562 -13.8351  255 255 255
-17.4321 -17.8537 30.0105  255 255 255
-15.7451 -18.3584 30.3203  255 255 255
-10.9647 -22.7811 34.8517  255 255 255
-19.5262 -22.4741 30.4636  255 255 255
44.2584 -47.1971 18.2473  255 255 255
35.4485 -46.9789 18.3122  255 255 255
51.5232 18.7898 -33.2191  255 255 255
-7.81077 -23.5161 35.4309  255 255 255
41.3599 -42.4091 12.1999  255 255 255
36.8115 -49.2006 20.8513  255 255 255
