ply
format ascii 1.0
element vertex 1243
property float x
property float y
property float z
property uchar red
property uchar green
property uchar blue
end_header
-76.6582 34.2526 -32.2396  255 255 255
-50.3794 -45.9947 23.5153  255 255 255
-75.8057 36.0889 -31.1672  255 255 255
-73.6016 65.5033 -5.00182  255 255 255
-73.1863 65.4526 -4.27373  255 255 255
-73.5883 55.8496 -14.0842  255 255 255
-75.5499 93.0386 -12.7971  255 255 255
-44.9605 -50.3253 27.6469  255 255 255
-67.8604 64.7919 -11.2129  255 255 255
-46.9248 -42.439 18.4179  255 255 255
-84.6879 142.23 -51.843  255 255 255
-66.3454 67.5929 -8.52581  255 255 255
-52.8881 -17.6712 -9.95082  255 255 255
-52.0584 -19.4042 -8.0235  255 255 255
-62.3993 53.4565 -25.9167  255 255 255
-66.542 105.484 -15.1278  255 255 255
-52.2842 -6.17161 -21.6655  255 255 255
-60.7805 67.9019 -13.453  255 255 255
-50.565 -7.55659 -21.1869  255 255 255
-35.7003 -61.2671 38.985  255 255 255
-38.7725 -48.8553 25.2121  255 255 255
-49.2763 -8.50668 -19.1413  255 255 255
-57.7297 42.0651 -38.2098  255 255 255
-56.9143 42.2706 -39.1108  255 255 255
-36.4131 -54.0832 31.5048  255 255 255
-56.3449 71.7385 -13.9771  255 255 255
-55.3349 56.8168 -28.4859  255 255 255
-54.7309 40.928 -42.4538  255 255 255
-49.4281 26.7214 -57.9602  255 255 255
-47.9447 44.2089 -44.5731  255 255 255
-58.883 113.912 -107.988  255 255 255
-46.9905 40.6526 -46.701  255 255 255
-29.3199 -61.6493 39.9028  255 255 255
-46.5104 72.4237 -20.3706  255 255 255
-43.4153 63.4976 -31.7231  255 255 255
-40.8301 46.8945 -48.5154  255 255 255
-42.7308 86.827 -21.719  255 255 255
-40.0008 47.9977 -47.5416  255 255 255
-40.0974 61.6178 -35.4349  255 255 255
-25.933 -61.5184 39.1312  255 255 255
-25.933 -61.5184 39.1312  255 255 255
-25.788 -62.0988 39.2365  255 255 255
-25.7415 -57.5615 34.0287  255 255 255
-38.1448 76.5393 -23.1542  255 255 255
-25.6706 -54.5467 31.1166  255 255 255
-25.386 -56.931 33.8329  255 255 255
-27.3558 -28.441 20.4323  255 255 255
-33.9759 49.1126 -51.8157  255 255 255
-23.6663 -62.4107 39.8575  255 255 255
-23.5092 -64.2961 41.8403  255 255 255
-27.0254 -19.5016 26.1587  255 255 255
-30.7064 49.1848 -54.2637  255 255 255
-30.7428 48.748 -52.8797  255 255 255
-26.0925 -17.9124 26.4222  255 255 255
-22.7739 -58.0789 35.0143  255 255 255
-25.6364 -8.34231 14.5444  255 255 255
-25.7144 -7.51151 13.4904  255 255 255
-22.4054 -55.6842 32.2783  255 255 255
-21.8285 -64.6951 42.5791  255 255 255
-21.8178 -64.9719 42.0201  255 255 255
-22.2119 -57.1715 33.9122  255 255 255
-24.5868 -23.7611 32.1415  255 255 255
-27.6327 54.9159 -50.4656  255 255 255
-27.0854 51.4196 -54.6517  255 255 255
-21.649 -54.9846 31.4298  255 255 255
-20.476 -63.0967 40.7763  255 255 255
-20.5671 -59 35.67  255 255 255
-20.2815 -56.4632 32.895  255 255 255
-22.5168 -7.61476 18.1515  255 255 255
-21.0412 -34.271 26.3657  255 255 255
-18.3923 53.3153 -59.9012  255 255 255
-18.7318 56.794 -54.5823  255 255 255
-21.7683 82.0163 -29.1743  255 255 255
-22.5579 98.4313 -26.9186  255 255 255
-16.9177 -59.337 36.0039  255 255 255
-16.6245 -58.9679 35.4959  255 255 255
-13.2154 38.253 -74.9279  255 255 255
-16.4247 -63.0738 38.446  255 255 255
-16.2481 -59.2859 35.8327  255 255 255
-16.3166 -61.4904 38.5104  255 255 255
-15.8127 -58.3468 34.8763  255 255 255
-15.7731 -61.1195 38.2435  255 255 255
-15.3314 -60.9502 38.1216  255 255 255
-16.5939 110.362 -34.9847  255 255 255
-16.5777 121.148 -39.3391  255 255 255
-16.2977 -2.96163 23.1452  255 255 255
-15.8111 110.034 -36.4338  255 255 255
-10.0664 51.5688 -66.2177  255 255 255
-16.0529 -15.9427 31.0283  255 255 255
-14.9717 106.322 -34.8157  255 255 255
-14.8997 117.483 -39.428  255 255 255
-14.9542 122.092 -40.6132  255 255 255
-13.6513 125.335 -42.3341  255 255 255
-13.6963 -59.1111 35.5523  255 255 255
-12.982 112.868 -37.759  255 255 255
-12.982 112.868 -37.759  255 255 255
-13.5528 -58.6449 35.6001  255 255 255
-11.3204 80.8861 -40.1667  255 255 255
-10.6351 77.2397 -43.1195  255 255 255
-10.6745 77.0945 -42.8929  255 255 255
-12.5258 104.594 -34.8538  255 255 255
-12.4459 106.7 -35.8918  255 255 255
-14.5615 -2.66229 25.1046  255 255 255
-12.1901 112.525 -39.1094  255 255 255
-12.1819 111.97 -38.4553  255 255 255
-14.3894 -21.2817 33.5634  255 255 255
-13.4711 -1.13785 24.1221  255 255 255
-13.4078 -1.07373 23.761  255 255 255
-10.483 117.284 -38.4379  255 255 255
-9.9398 110.016 -37.9792  255 255 255
-9.43567 121.846 -42.7602  255 255 255
-7.59965 80.2598 -43.326  255 255 255
-9.72027 99.0148 -32.5479  255 255 255
-4.12137 17.4022 -52.4276  255 255 255
-6.75922 75.056 -47.2625  255 255 255
-12.99 -25.5549 34.2509  255 255 255
-12.6167 -33.1398 34.0626  255 255 255
-8.51194 109.168 -36.8878  255 255 255
-8.51194 109.168 -36.8878  255 255 255
-7.22628 111.217 -40.7789  255 255 255
-7.35097 103.334 -36.5018  255 255 255
-7.35097 103.334 -36.5018  255 255 255
-7.14307 115.756 -41.6346  255 255 255
-11.6873 -36.0116 32.139  255 255 255
-7.00774 98.8274 -34.7771  255 255 255
-7.00338 98.966 -34.963  255 255 255
-6.84135 120.711 -42.4324  255 255 255
-7.02213 93.6825 -31.5028  255 255 255
-6.21706 114.022 -41.396  255 255 255
-11.93 -19.0252 33.0752  255 255 255
-11.9523 -22.2492 34.6995  255 255 255
-5.51022 88.613 -36.9841  255 255 255
-2.19848 70.8421 -55.8866  255 255 255
-5.49848 94.2163 -32.4047  255 255 255
-5.04812 100.572 -36.5474  255 255 255
-3.77495 84.0707 -41.286  255 255 255
-4.60252 123.014 -43.7698  255 255 255
-10.209 0.352746 24.6433  255 255 255
-1.47066 85.5867 -43.7763  255 255 255
1.42871 72.8237 -58.8203  255 255 255
3.60338 60.6798 -69.5719  255 255 255
-9.91601 -5.13849 30.4388  255 255 255
-8.44746 0.718262 24.2727  255 255 255
0.787397 86.3653 -44.9353  255 255 255
-1.00113 101.717 -36.6427  255 255 255
7.30514 55.2085 -74.6981  255 255 255
-8.08929 -3.97074 30.2539  255 255 255
-8.00299 -11.4858 34.7343  255 255 255
-7.69404 -11.6445 34.519  255 255 255
2.60511 113.638 -35.5708  255 255 255
6.72532 80.093 -54.8783  255 255 255
10.4568 60.1405 -70.4071  255 255 255
7.15054 87.8643 -48.4955  255 255 255
6.95005 106.853 -41.885  255 255 255
6.93317 106.804 -41.8237  255 255 255
8.06466 93.9783 -42.844  255 255 255
9.21683 89.8044 -47.8816  255 255 255
8.01988 100.929 -40.987  255 255 255
7.98356 100.657 -40.5418  255 255 255
9.53477 119.987 -44.2913  255 255 255
-5.04806 -20.529 35.4435  255 255 255
14.891 75.992 -64.7159  255 255 255
14.7802 75.8429 -64.3279  255 255 255
-4.82512 -14.99 36.3863  255 255 255
13.6318 86.8964 -54.308  255 255 255
11.9856 112.649 -47.2799  255 255 255
-4.06947 -8.73237 34.3199  255 255 255
12.268 98.7211 -40.079  255 255 255
19.0456 72.4846 -71.2375  255 255 255
16.0612 90.1836 -53.2667  255 255 255
22.9179 61.9238 -82.9683  255 255 255
21.1324 71.1251 -73.4892  255 255 255
17.2819 90.4357 -53.5453  255 255 255
16.4302 114.033 -49.1867  255 255 255
16.3994 113.869 -48.9156  255 255 255
17.5204 91.717 -52.5597  255 255 255
23.4186 67.6133 -78.576  255 255 255
17.9425 118.286 -50.7915  255 255 255
18.5859 91.9904 -53.1801  255 255 255
17.9642 108.466 -47.363  255 255 255
25.9922 38.5008 -78.0494  255 255 255
22.3752 89.9101 -58.7985  255 255 255
19.8417 110.284 -47.4671  255 255 255
19.8417 110.284 -47.4671  255 255 255
20.0233 102.115 -45.4894  255 255 255
1.19642 -35.3136 35.2952  255 255 255
3.25037 -42.9398 28.8581  255 255 255
1.94874 -14.9439 35.8597  255 255 255
32.5744 85.9676 -70.9897  255 255 255
1.5258 -31.5142 38.4656  255 255 255
32.2574 92.3917 -64.5635  255 255 255
32.2574 92.3917 -64.5635  255 255 255
30.5424 98.1069 -55.9859  255 255 255
44.1493 61.4007 -98.2898  255 255 255
-79.4503 2.6461 96.904  255 255 255
-162.451 99.1917 -114.998  255 255 255
-149.232 110.213 -85.4128  255 255 255
-138.461 101.97 -73.22  255 255 255
-127.14 114.311 -51.8912  255 255 255
-131.343 121.932 -58.9542  255 255 255
-127.203 120.451 -54.3309  255 255 255
-115.347 91.3574 -38.441  255 255 255
-125.042 117.865 -52.4594  255 255 255
-136.519 143.253 -70.9029  255 255 255
-107.321 70.1353 -39.0173  255 255 255
-92.8875 61.1968 -16.6255  255 255 255
-74.0968 -14.5762 -12.0143  255 255 255
-85.8243 48.3429 -15.7197  255 255 255
-83.467 63.4615 0.581821  255 255 255
-106.378 122.451 -44.4629  255 255 255
-80.3621 60.5787 -4.50926  255 255 255
-80.2886 45.3559 -18.8247  255 255 255
-80.3251 40.4476 -22.5372  255 255 255
-97.2625 119.496 -41.8573  255 255 255
-95.7841 121.93 -36.8812  255 255 255
-78.0475 55.9694 -10.3539  255 255 255
-78.1877 56.1472 -10.8711  255 255 255
-78.4529 41.2325 -24.0033  255 255 255
-77.232 63.4439 -4.26675  255 255 255
-94.015 120.078 -38.5689  255 255 255
-78.0182 34.5145 -31.3237  255 255 255
-77.5544 38.287 -26.6311  255 255 255
-80.8979 83.6558 -9.46021  255 255 255
-77.2664 28.0389 -37.0845  255 255 255
-74.6428 64.4418 -5.75158  255 255 255
-74.3309 53.3156 -17.1447  255 255 255
-75.7513 90.7117 -11.1219  255 255 255
-70.9581 36.5823 -34.2355  255 255 255
-74.9747 94.4599 -12.967  255 255 255
-65.6145 66.0023 -10.4891  255 255 255
-63.1153 68.471 -9.26965  255 255 255
-39.31 -51.6668 27.1368  255 255 255
-87.2832 194.991 -104.299  255 255 255
-59.4946 61.3626 -21.5923  255 255 255
-59.4413 61.1437 -21.2128  255 255 255
-50.5847 -4.36771 -24.0993  255 255 255
-38.7171 -48.0408 24.4619  255 255 255
-49.1928 -3.82814 -24.2612  255 255 255
-56.3208 66.6808 -18.2071  255 255 255
-53.8789 28.718 -51.5822  255 255 255
-43.4739 -14.2845 -12.9671  255 255 255
-53.3207 71.8229 -14.2127  255 255 255
-32.6547 -61.5832 40.2918  255 255 255
-44.3135 -9.14146 -19.3607  255 255 255
-34.1175 -51.2398 28.1645  255 255 255
-50.751 72.471 -15.2213  255 255 255
-32.9116 -53.7594 30.6361  255 255 255
-31.3604 -59.6845 37.3768  255 255 255
-31.3615 -59.6457 37.4181  255 255 255
-49.1936 72.426 -17.1534  255 255 255
-44.1191 15.9824 -47.3517  255 255 255
-45.8704 63.4636 -31.8428  255 255 255
-27.7993 -62.1201 40.4211  255 255 255
-42.8495 91.1689 -18.1907  255 255 255
-39.0307 76.279 -22.5419  255 255 255
-26.321 -55.8255 32.829  255 255 255
-44.0649 218.586 -129.865  255 255 255
-22.4396 -64.683 41.9918  255 255 255
-22.7592 -55.3893 31.9478  255 255 255
-23.4669 -4.15302 9.51634  255 255 255
-24.4788 64.225 -45.3145  255 255 255
-25.162 80.536 -29.168  255 255 255
-20.7432 -5.00064 15.1796  255 255 255
-18.4792 -57.3497 33.7361  255 255 255
-18.3098 -65.1964 42.929  255 255 255
-17.6561 16.7037 -49.3452  255 255 255
-19.8803 -0.885509 6.04138  255 255 255
-16.5722 -61.6959 38.7066  255 255 255
-16.1815 -58.4543 34.9994  255 255 255
-15.8832 -29.134 36.173  255 255 255
-9.9891 60.4948 -59.0229  255 255 255
-9.9891 60.4948 -59.0229  255 255 255
-8.41037 68.1438 -54.027  255 255 255
-5.38873 214.182 -130.244  255 255 255
-11.2911 100.407 -34.1202  255 255 255
-9.01215 90.0264 -33.1556  255 255 255
-12.9576 -21.9605 34.1201  255 255 255
-6.5445 116.294 -38.9178  255 255 255
-11.0649 -37.2448 31.6101  255 255 255
-3.597 82.6678 -44.5268  255 255 255
-4.82889 118.822 -43.2895  255 255 255
-4.19007 87.3117 -39.6828  255 255 255
1.50991 27.0717 -63.2957  255 255 255
-10.09 -60.1882 36.4542  255 255 255
-11.2057 -16.0754 33.6889  255 255 255
-11.1998 -16.054 33.6345  255 255 255
1.07657 72.9392 -56.5036  255 255 255
-9.41268 0.568693 24.6269  255 255 255
6.45207 52.1556 -78.4487  255 255 255
-8.41133 -45.9057 31.9617  255 255 255
-8.53264 -60.5015 36.509  255 255 255
-8.30202 -3.23684 29.8593  255 255 255
8.66501 69.9761 -65.3081  255 255 255
-7.42764 -20.3071 36.266  255 255 255
-7.04889 -6.04321 33.4454  255 255 255
5.90753 90.6996 -44.7284  255 255 255
7.85351 87.6156 -49.5756  255 255 255
-6.40014 -14.741 36.0782  255 255 255
12.0188 85.5063 -54.9653  255 255 255
10.3913 93.1515 -45.7176  255 255 255
-4.37169 -38.6638 33.3956  255 255 255
10.2817 120.068 -42.9959  255 255 255
10.6706 119.784 -44.1943  255 255 255
16.7378 75.0609 -65.3648  255 255 255
16.9376 75.4193 -66.1696  255 255 255
16.7378 75.0609 -65.3648  255 255 255
-3.72166 -9.91698 34.3655  255 255 255
19.0785 72.53 -71.4878  255 255 255
15.171 91.1698 -51.8798  255 255 255
19.8638 75.7897 -69.1227  255 255 255
23.846 73.2967 -73.7574  255 255 255
19.7051 88.7398 -55.2286  255 255 255
25.4081 37.0374 -76.3453  255 255 255
-1.17442 -11.3414 35.7376  255 255 255
21.2641 92.0863 -55.7797  255 255 255
-0.773582 -14.947 35.4382  255 255 255
2.63906 -1.86872 23.1518  255 255 255
22.3849 86.9103 -53.7331  255 255 255
-0.208529 -30.2051 37.6801  255 255 255
22.3063 97.8847 -47.8589  255 255 255
29.3923 82.5156 -70.9733  255 255 255
2.97491 -43.2254 28.8001  255 255 255
32.7013 74.4292 -79.4936  255 255 255
30.5831 86.9758 -69.1393  255 255 255
33.2679 77.3328 -78.7996  255 255 255
28.3555 98.6358 -52.1161  255 255 255
30.5503 97.2325 -56.9789  255 255 255
-85.5726 -37.5678 16.1884  255 255 255
-199.641 146.501 -152.34  255 255 255
-190.588 134.594 -145.021  255 255 255
-117.547 28.0093 -58.6496  255 255 255
-132.359 85.5231 -73.1677  255 255 255
-128.416 111.64 -49.8934  255 255 255
-128.205 80.5896 -69.5642  255 255 255
-128.205 80.5896 -69.5642  255 255 255
-123.452 89.1544 -55.4863  255 255 255
-122.797 79.8454 -60.1008  255 255 255
-118.06 95.2356 -39.8631  255 255 255
-100.61 64.8456 -29.5851  255 255 255
-81.5136 49.7684 -14.4059  255 255 255
-80.3508 73.1335 -3.85317  255 255 255
-76.9488 64.6765 -4.44232  255 255 255
-76.1613 39.0742 -28.0723  255 255 255
-77.3459 84.8625 -9.17129  255 255 255
-77.3459 84.8625 -9.17129  255 255 255
-76.7827 87.4388 -10.3462  255 255 255
-71.9562 35.1971 -34.0761  255 255 255
-72.1133 53.1149 -21.2806  255 255 255
-69.4933 36.1326 -35.4502  255 255 255
-74.1021 98.7362 -15.5066  255 255 255
-78.9634 150.119 -60.626  255 255 255
-59.8041 61.8775 -19.8055  255 255 255
-54.0679 57.0122 -29.0683  255 255 255
-49.3414 73.8943 -17.6678  255 255 255
-27.0213 -61.2926 38.9022  255 255 255
-26.1097 -62.8292 40.6359  255 255 255
-25.754 -61.9022 39.5229  255 255 255
-26.3142 -57.554 34.3232  255 255 255
-26.3249 -57.1369 35.4372  255 255 255
-37.1193 74.3796 -24.9442  255 255 255
-24.6707 -57.023 33.6289  255 255 255
-27.2022 -27.0791 20.7167  255 255 255
-41.6072 156.992 -73.4308  255 255 255
-23.3086 -57.4528 31.4102  255 255 255
-20.3922 -59.6938 36.7444  255 255 255
-17.997 -60.5591 36.3981  255 255 255
-16.5039 37.2904 -71.4308  255 255 255
-15.9324 -66.3846 44.2613  255 255 255
-17.1529 -28.0371 35.3727  255 255 255
-15.4365 81.4493 -35.0971  255 255 255
-15.3207 -29.5813 37.0505  255 255 255
-12.5079 101.608 -36.0566  255 255 255
-13.7406 -27.4457 35.704  255 255 255
-8.47997 81.0866 -40.7314  255 255 255
-8.47997 81.0866 -40.7314  255 255 255
-13.2204 -22.6471 35.0706  255 255 255
-4.41189 83.9057 -43.9068  255 255 255
-10.2901 -0.526351 25.8139  255 255 255
-8.39375 -23.8614 35.9232  255 255 255
-6.44991 0.542213 24.1682  255 255 255
3.14852 113.401 -37.7999  255 255 255
-5.18643 -6.72472 32.7986  255 255 255
-5.27057 -6.76549 33.0129  255 255 255
16.4534 61.6785 -75.6729  255 255 255
17.9408 62.0037 -80.079  255 255 255
19.425 62.9676 -77.9488  255 255 255
-3.98837 -30.5495 38.355  255 255 255
-2.77108 -6.94159 33.5579  255 255 255
28.1628 65.6395 -86.5776  255 255 255
-1.29805 -33.4787 36.9122  255 255 255
-0.224944 -10.8046 35.1747  255 255 255
2.95419 -24.288 35.6543  255 255 255
-84.9787 -36.422 16.4919  255 255 255
-158.521 102.35 -102.706  255 255 255
-159.597 104.238 -106.315  255 255 255
-150.348 95.616 -100.312  255 255 255
-104.121 74.9718 -29.5877  255 255 255
-105.421 57.0966 -45.0853  255 255 255
-131.744 166.071 -81.1201  255 255 255
-85.9388 35.4443 -31.6222  255 255 255
-102.799 119.262 -38.1367  255 255 255
-79.5026 23.3179 -39.639  255 255 255
-94.6285 118.684 -38.127  255 255 255
-77.8559 82.6419 -8.04908  255 255 255
-81.0119 143.439 -56.9183  255 255 255
-57.0684 31.3695 -49.0759  255 255 255
-29.6005 -60.0954 37.9834  255 255 255
-28.9887 -56.7566 33.9511  255 255 255
-26.336 -26.7301 23.2627  255 255 255
-21.8834 -64.6062 40.1031  255 255 255
-19.4167 -58.8594 35.5587  255 255 255
-19.436 -57.7365 34.4855  255 255 255
-17.2775 -24.6405 33.1952  255 255 255
-9.28378 71.4323 -49.4546  255 255 255
-1.55397 21.4665 -56.341  255 255 255
-1.23891 25.9419 -61.5194  255 255 255
-1.58535 19.4802 -53.1115  255 255 255
-4.69533 99.5808 -35.276  255 255 255
-3.44269 88.3285 -38.7319  255 255 255
-8.71326 -59.5225 35.5525  255 255 255
-1.58126 115.093 -38.6442  255 255 255
-7.96633 -22.067 34.1422  255 255 255
12.8233 69.515 -69.6864  255 255 255
-5.69765 -36.74 34.8467  255 255 255
16.3642 131.289 -49.3048  255 255 255
-2.36692 -32.8005 37.8532  255 255 255
17.4783 107.463 -46.9038  255 255 255
-0.361996 -39.2722 31.9836  255 255 255
20.1873 102.854 -45.6431  255 255 255
25.249 121.708 -54.0087  255 255 255
-148.397 92.092 -87.5438  255 255 255
-142.999 123.195 -60.4143  255 255 255
-149.483 115.521 -86.4468  255 255 255
-134.494 118.77 -56.6948  255 255 255
-118.181 66.6658 -61.1122  255 255 255
-117.193 54.2927 -68.1433  255 255 255
-118.365 59.0286 -68.696  255 255 255
-94.4061 46.0128 -33.3592  255 255 255
-92.0523 64.2271 -13.407  255 255 255
-113.833 126.164 -52.7163  255 255 255
-81.2414 34.1043 -26.6553  255 255 255
-78.507 35.1223 -29.9066  255 255 255
-52.7275 -42.5917 19.1749  255 255 255
-76.3169 30.3998 -34.6673  255 255 255
-98.6559 142.339 -51.0303  255 255 255
-42.1542 -57.4937 36.435  255 255 255
-37.5612 -50.89 26.8806  255 255 255
-56.6796 69.447 -12.7203  255 255 255
-67.981 153.931 -66.7023  255 255 255
-25.3659 -35.9478 21.9992  255 255 255
-22.8371 -62.9754 40.0894  255 255 255
-22.3043 -64.414 40.6771  255 255 255
-22.3043 -64.414 40.6771  255 255 255
-22.0233 -63.0329 42.1578  255 255 255
-24.0184 -23.516 32.1733  255 255 255
-27.8698 103.421 -32.2918  255 255 255
-18.8981 -62.7401 39.9744  255 255 255
-15.6335 -32.6037 35.5293  255 255 255
-14.6689 115.66 -35.6179  255 255 255
-7.57559 68.1957 -54.338  255 255 255
-12.7828 -27.9018 36.3837  255 255 255
-12.458 -28.7564 36.8757  255 255 255
-9.24007 -18.5388 34.2634  255 255 255
-9.02503 -10.9467 33.9551  255 255 255
1.79582 113.116 -39.8968  255 255 255
7.28627 77.4824 -55.5478  255 255 255
4.72891 105.221 -41.3106  255 255 255
11.8392 71.545 -65.7567  255 255 255
6.47885 100.501 -39.1484  255 255 255
16.7077 77.2735 -65.2222  255 255 255
16.16 98.1279 -41.2837  255 255 255
31.4526 99.4383 -56.2404  255 255 255
-137.612 115.318 -63.4796  255 255 255
-113.258 94.5634 -30.7596  255 255 255
-110.244 56.5032 -53.7244  255 255 255
-100.145 36.6577 -49.4238  255 255 255
-66.6748 35.5204 -43.7368  255 255 255
-31.3403 79.7899 -25.2517  255 255 255
-20.3331 -58.7608 35.6641  255 255 255
-16.1709 83.2306 -34.667  255 255 255
-14.5809 109.392 -36.8499  255 255 255
-15.092 -22.411 33.6632  255 255 255
-14.4492 -4.23686 26.4481  255 255 255
2.17632 91.932 -39.2245  255 255 255
-6.89367 -28.7577 36.619  255 255 255
11.3864 101.065 -40.038  255 255 255
18.6562 74.57 -69.6605  255 255 255
-3.25921 -12.1452 35.9187  255 255 255
30.1105 70.102 -80.0001  255 255 255
-96.5699 124.917 -32.726  255 255 255
-96.5699 124.917 -32.726  255 255 255
-71.8379 66.3818 -5.318  255 255 255
-52.5236 71.0203 -17.9406  255 255 255
-28.3685 -60.7396 37.9244  255 255 255
-23.7808 -35.091 22.8839  255 255 255
-16.7462 -62.2489 38.8474  255 255 255
-7.89311 -45.7917 31.7363  255 255 255
-4.96684 -18.0318 36.0117  255 255 255
21.328 97.0564 -49.7927  255 255 255
22.8152 99.2543 -43.3772  255 255 255
-30.9201 -59.8821 37.6586  255 255 255
-49.4263 88.1375 -10.474  255 255 255
-29.0683 -59.5646 36.5046  255 255 255
-29.0683 -59.5646 36.5046  255 255 255
-16.0299 -61.1489 38.0626  255 255 255
-13.9155 -60.0495 36.8427  255 255 255
-6.87448 93.056 -29.4883  255 255 255
-19.3183 -60.1515 37.223  255 255 255
16.5995 94.7568 -47.4389  255 255 255
-26.0289 78.0901 -33.9152  255 255 255
-15.8117 61.7788 -52.3154  255 255 255
-46.8436 86.0386 -15.6667  255 255 255
-14.1475 81.5207 -38.0234  255 255 255
-4.12341 -30.6988 38.1658  255 255 255
-35.5302 82.7833 -13.3992  255 255 255
-133.939 183.03 -95.4344  255 255 255
-14.1866 165.177 -86.555  255 255 255
-131.42 171.877 -84.6014  255 255 255
-19.8532 161.221 -83.3689  255 255 255
-7.17787 141.634 -57.8599  255 255 255
-80.9611 146.55 -58.6689  255 255 255
-50.6305 150.677 -69.4067  255 255 255
-50.6934 150.867 -69.6734  255 255 255
-135.837 156.53 -73.9126  255 255 255
-81.7238 135.46 -51.4253  255 255 255
-131.755 154.575 -73.3191  255 255 255
-144.152 156.212 -75.4203  255 255 255
-96.721 122.983 -38.6172  255 255 255
-95.7382 123.517 -41.5918  255 255 255
-98.3418 117.212 -43.2041  255 255 255
-50.1134 102.427 -25.798  255 255 255
-73.9168 95.6864 -14.6797  255 255 255
-110.506 120.357 -51.6271  255 255 255
-76.987 84.3706 -10.0432  255 255 255
15.9466 91.7225 -51.6976  255 255 255
-22.3662 82.1825 -30.716  255 255 255
15.4473 90.6124 -51.5425  255 255 255
-17.4259 83.367 -34.8458  255 255 255
-9.3997 85.0961 -40.0906  255 255 255
-2.64163 85.4751 -45.2918  255 255 255
29.5621 92.6714 -63.7235  255 255 255
-9.27537 82.7025 -40.7102  255 255 255
17.8369 87.6472 -56.4026  255 255 255
-14.529 80.1416 -40.0264  255 255 255
11.5078 86.3231 -55.6984  255 255 255
-59.856 68.9403 -13.7072  255 255 255
12.5782 84.0915 -57.2022  255 255 255
-15.1898 77.2233 -40.2543  255 255 255
-68.1525 65.3768 -10.9875  255 255 255
-16.3578 75.8554 -39.5824  255 255 255
28.6527 86.1442 -67.1701  255 255 255
28.6527 86.1442 -67.1701  255 255 255
43.1749 87.0315 -76.1249  255 255 255
15.6957 80.8402 -60.5844  255 255 255
8.22331 79.0047 -57.4801  255 255 255
18.9783 79.4017 -65.2782  255 255 255
-21.4699 71.1368 -41.7057  255 255 255
-21.4699 71.1368 -41.7057  255 255 255
27.782 79.0581 -72.47  255 255 255
-40.658 64.8062 -32.0878  255 255 255
0.465834 72.5261 -56.3047  255 255 255
15.1631 75.3781 -65.6241  255 255 255
-45.1872 63.5102 -30.9002  255 255 255
-1.22625 70.8221 -57.4704  255 255 255
-2.13739 70.487 -56.861  255 255 255
-17.2501 67.2349 -47.747  255 255 255
-22.3575 66.3619 -45.5326  255 255 255
-32.428 63.6249 -41.2231  255 255 255
-17.0226 65.8111 -49.4804  255 255 255
41.3808 76.237 -84.6758  255 255 255
20.9699 72.3623 -73.2026  255 255 255
10.6353 69.5184 -66.1527  255 255 255
-2.82703 67.1356 -59.63  255 255 255
46.4257 74.0726 -89.0225  255 255 255
-35.1428 59.8238 -42.6844  255 255 255
43.5377 72.8821 -88.2637  255 255 255
-54.5636 54.4196 -29.7489  255 255 255
-16.9421 61.2984 -53.343  255 255 255
-16.9421 61.2984 -53.343  255 255 255
-12.8505 60.518 -56.3096  255 255 255
-31.2633 57.2815 -47.1003  255 255 255
-41.6395 54.9081 -39.7553  255 255 255
-41.6168 54.8393 -39.5957  255 255 255
-50.2551 53.0764 -34.1736  255 255 255
11.6525 63.4125 -72.4851  255 255 255
-1.17838 61.2003 -64.5788  255 255 255
-26.3024 57.1911 -50.5959  255 255 255
-1.51849 60.8593 -64.9079  255 255 255
-30.8469 55.9179 -49.1648  255 255 255
-2.4214 60.408 -65.7308  255 255 255
-16.304 57.7423 -56.8953  255 255 255
31.9419 65.4727 -86.4339  255 255 255
0.116578 59.5343 -66.4082  255 255 255
-41.0585 52.7352 -41.7398  255 255 255
-54.1316 50.5436 -33.9814  255 255 255
-28.8178 54.4467 -50.1952  255 255 255
-17.2951 56.3624 -57.5044  255 255 255
43.2583 65.5164 -93.6024  255 255 255
-17.6284 55.7595 -57.126  255 255 255
-17.6241 55.7828 -57.2293  255 255 255
-29.3027 52.9349 -51.3181  255 255 255
-41.6518 50.9886 -44.319  255 255 255
-22.9375 53.633 -56.1475  255 255 255
-64.3718 46.3603 -30.4662  255 255 255
-14.0147 54.3283 -61.889  255 255 255
-25.7197 52.2792 -54.3282  255 255 255
-25.824 51.9628 -53.2769  255 255 255
-22.2732 52.2638 -56.4816  255 255 255
-65.3799 45.1052 -30.4358  255 255 255
-65.3799 45.1052 -30.4358  255 255 255
-31.0637 50.626 -52.4054  255 255 255
-33.2506 49.8747 -50.9443  255 255 255
-27.3727 50.7389 -55.1565  255 255 255
-29.3985 50.2657 -54.042  255 255 255
-8.37157 53.4037 -66.8021  255 255 255
-51.3964 46.5853 -40.5459  255 255 255
-65.0384 44.3173 -32.2806  255 255 255
-25.962 50.3067 -56.3266  255 255 255
8.75051 55.1615 -77.3468  255 255 255
-45.9348 47.2199 -44.8878  255 255 255
-64.036 43.7742 -33.0945  255 255 255
-46.8381 46.2332 -44.563  255 255 255
-19.6266 47.2883 -55.8931  255 255 255
-7.6566 48.7684 -70.2552  255 255 255
-36.3438 44.0635 -52.4728  255 255 255
-76.7898 38.1822 -27.5474  255 255 255
-76.6279 38.4888 -28.8483  255 255 255
6.40428 49.5886 -80.1173  255 255 255
-15.7614 46.667 -67.912  255 255 255
5.60544 48.1892 -81.6121  255 255 255
-60.0844 39.1313 -40.6835  255 255 255
-74.3096 36.2814 -31.1197  255 255 255
-72.3892 36.7234 -33.188  255 255 255
-71.7658 36.7099 -33.2571  255 255 255
-78.1667 35.8673 -29.7631  255 255 255
-34.3721 41.5809 -58.8595  255 255 255
-77.7016 34.8326 -29.5663  255 255 255
-43.0983 27.7435 -15.1157  255 255 255
-11.8049 40.0545 -76.0949  255 255 255
-29.7561 37.7311 -65.4296  255 255 255
-29.8166 37.3718 -63.8211  255 255 255
-15.491 38.7523 -74.1122  255 255 255
-33.8784 36.2022 -64.0233  255 255 255
-33.8784 36.2022 -64.0233  255 255 255
10.507 34.7254 -72.2219  255 255 255
10.237 34.0154 -71.2141  255 255 255
11.4416 33.5477 -71.0434  255 255 255
-52.872 31.3458 -52.4696  255 255 255
-68.8686 29.7331 -43.1467  255 255 255
-62.5716 30.2472 -46.128  255 255 255
-63.4516 29.9809 -46.0551  255 255 255
-78.0131 27.7876 -36.6151  255 255 255
-53.8085 30.5558 -52.4626  255 255 255
-80.4301 25.9461 -35.8429  255 255 255
-82.139 25.5752 -35.5905  255 255 255
-82.7493 25.1977 -35.285  255 255 255
-1.64919 28.1121 -63.2272  255 255 255
-79.9045 24.9138 -37.8523  255 255 255
-44.3334 28.5899 -61.9901  255 255 255
-77.8295 24.2875 -40.1697  255 255 255
-65.956 24.4227 -48.5609  255 255 255
-77.3306 22.8417 -41.3634  255 255 255
-48.1444 16.2058 -48.009  255 255 255
-18.9204 12.48 -45.0396  255 255 255
-21.2993 9.12949 -40.7497  255 255 255
-31.9947 8.84891 -41.3286  255 255 255
-34.483 8.4254 -40.0637  255 255 255
-9.00369 -1.35042 27.4724  255 255 255
-18.3295 2.16984 1.87444  255 255 255
-14.7999 1.12805 7.42682  255 255 255
-16.0461 0.337164 8.70218  255 255 255
-24.0347 5.06147 -33.7471  255 255 255
-16.5145 -0.66662 10.1387  255 255 255
-17.818 -1.0772 10.2084  255 255 255
-27.0583 4.28585 -33.5651  255 255 255
-12.0621 -3.34951 27.6599  255 255 255
-20.2872 -0.598952 5.40467  255 255 255
-18.69 -1.71211 11.9671  255 255 255
-22.5407 -1.13735 6.04054  255 255 255
-18.8607 -1.8673 11.1568  255 255 255
-17.9544 -1.97098 11.9766  255 255 255
-19.2777 -1.97247 11.6134  255 255 255
-19.2524 -1.95347 11.4728  255 255 255
-15.0201 -3.83778 25.6044  255 255 255
-15.504 -4.25576 25.4851  255 255 255
-50.4683 2.63334 -32.2949  255 255 255
-18.8596 -3.17148 13.0828  255 255 255
-19.1662 -3.48779 13.5225  255 255 255
-24.824 -3.23896 8.69657  255 255 255
-19.1488 -4.00654 14.2182  255 255 255
-25.6394 -3.64115 9.29476  255 255 255
-25.2802 -3.92671 9.50122  255 255 255
-25.2802 -3.92671 9.50122  255 255 255
-23.4091 -3.99438 9.4965  255 255 255
-20.2771 -5.06478 15.98  255 255 255
-21.0746 -5.09216 15.4328  255 255 255
-11.8578 -6.8398 30.3673  255 255 255
-25.018 -1.11685 -27.7983  255 255 255
-24.8094 -0.973373 -29.4807  255 255 255
-23.7963 -4.83944 9.95031  255 255 255
-21.3839 -5.46297 15.7078  255 255 255
-9.82737 -7.75369 32.0296  255 255 255
-26.6036 -5.74994 12.4784  255 255 255
-21.6132 -6.67506 17.1821  255 255 255
-21.9059 -6.69767 17.3326  255 255 255
-60.5268 -3.73136 -24.333  255 255 255
-22.4565 -7.85535 18.5227  255 255 255
-12.0442 -9.61321 31.6767  255 255 255
-40.8823 -5.21169 -24.0021  255 255 255
-2.70766 -10.2583 35.2157  255 255 255
-57.1177 208.601 -113.995  255 255 255
-103.633 193.792 -99.9198  255 255 255
-115.444 190.434 -94.9843  255 255 255
-111.451 188.903 -94.4528  255 255 255
-111.451 188.903 -94.4528  255 255 255
-115.336 189.424 -94.92  255 255 255
-110.691 187.892 -94.5158  255 255 255
-34.5755 191.961 -109.52  255 255 255
-38.4889 189.61 -107.634  255 255 255
-102.1 181.531 -92.3576  255 255 255
-98.4053 180.795 -93.1071  255 255 255
-104.873 179.02 -90.2644  255 255 255
-121.89 184.522 -99.8347  255 255 255
-127.332 183.246 -98.3811  255 255 255
-47.005 158.09 -74.2478  255 255 255
-29.8142 160.286 -79.9399  255 255 255
-93.5826 143.013 -50.8405  255 255 255
-61.4765 151.97 -66.7579  255 255 255
-62.7284 151.818 -66.6134  255 255 255
-30.2173 158.369 -79.1497  255 255 255
-51.9206 153.011 -69.7345  255 255 255
-55.8407 152.352 -68.6656  255 255 255
-55.8407 152.352 -68.6656  255 255 255
-126.926 170.011 -84.5564  255 255 255
-36.2145 155.365 -75.0853  255 255 255
-93.5974 141.446 -50.0827  255 255 255
-83.2952 145.387 -56.8769  255 255 255
-33.159 155.46 -76.5902  255 255 255
-46.0515 153.213 -72.237  255 255 255
-52.264 151.152 -69.0703  255 255 255
-132.452 165.693 -80.4312  255 255 255
-133.025 164.287 -80.0527  255 255 255
-81.3598 143.017 -56.6802  255 255 255
-66.9133 145.634 -62.4036  255 255 255
-54.374 146.7 -66.5912  255 255 255
-82.5052 139.612 -53.5792  255 255 255
-68.4432 143.077 -60.583  255 255 255
-65.6255 143.459 -61.7079  255 255 255
4.85309 131.349 -51.8737  255 255 255
-32.6798 149.182 -74.2615  255 255 255
17.5276 130.148 -52.1906  255 255 255
17.5037 129.968 -51.8693  255 255 255
-129.681 158.94 -76.8673  255 255 255
-6.43601 127.457 -46.2842  255 255 255
-133.106 157.822 -75.2979  255 255 255
-132.089 156.253 -74.6265  255 255 255
-137.444 154.592 -71.7874  255 255 255
-134.454 153.306 -71.8561  255 255 255
-135.689 153.102 -71.551  255 255 255
-64.582 138.619 -59.8456  255 255 255
-17.0913 116.14 -37.6464  255 255 255
-0.157364 114.264 -37.499  255 255 255
-99.4339 120.979 -38.7752  255 255 255
-75.5186 102.791 -16.0997  255 255 255
-96.4407 119.336 -42.8982  255 255 255
-100.682 116.998 -41.5325  255 255 255
-50.4664 101.567 -24.8242  255 255 255
17.588 109.58 -47.7616  255 255 255
-164.368 145.862 -86.9789  255 255 255
-99.9618 114.478 -44.4444  255 255 255
-163.988 145.656 -87.3327  255 255 255
-163.302 144.866 -86.4134  255 255 255
-115.93 107.434 -44.6231  255 255 255
-76.767 82.914 -9.80662  255 255 255
13.8971 96.8807 -44.9032  255 255 255
8.00649 95.6653 -42.3643  255 255 255
11.6131 91.5526 -48.9402  255 255 255
-83.3207 80.2035 -20.5809  255 255 255
-27.2345 79.2165 -29.6494  255 255 255
-10.3325 81.3875 -41.0985  255 255 255
-10.8349 78.3492 -43.2894  255 255 255
-61.0499 67.0487 -14.0388  255 255 255
-61.0499 67.0487 -14.0388  255 255 255
-82.1462 62.4412 -2.22411  255 255 255
29.696 86.9259 -68.0172  255 255 255
-7.06239 77.1109 -46.8932  255 255 255
-4.28217 78.3196 -50.2659  255 255 255
20.4459 82.7886 -63.9117  255 255 255
-4.91256 76.6341 -49.55  255 255 255
-11.9407 74.5343 -45.5595  255 255 255
-23.1017 71.7538 -39.4905  255 255 255
-23.1045 71.7614 -39.514  255 255 255
-55.7649 64.4029 -20.0291  255 255 255
-59.0873 63.755 -18.6497  255 255 255
10.5432 78.3077 -59.3047  255 255 255
22.2765 81.2722 -68.0993  255 255 255
-55.3943 63.7906 -21.8407  255 255 255
-41.5876 66.3911 -29.5319  255 255 255
15.7324 77.8604 -63.034  255 255 255
-41.892 66.0032 -29.6672  255 255 255
14.4384 77.6389 -62.8773  255 255 255
17.7289 78.3694 -64.9703  255 255 255
-21.598 70.1956 -41.9574  255 255 255
-153.095 100.775 -97.3709  255 255 255
11.3615 75.919 -61.5048  255 255 255
-42.3485 65.0974 -30.3686  255 255 255
-42.3267 65.1372 -30.4516  255 255 255
-56.1716 61.9038 -22.4444  255 255 255
-56.1716 61.9038 -22.4444  255 255 255
0.117308 73.1533 -56.9659  255 255 255
24.0337 78.0334 -71.748  255 255 255
-1.85605 71.928 -54.4535  255 255 255
-20.0389 68.3003 -44.0031  255 255 255
-44.6312 63.4851 -30.1496  255 255 255
-0.0608729 72.606 -56.9367  255 255 255
1.25698 72.256 -57.5138  255 255 255
-15.5646 68.5122 -47.8959  255 255 255
-36.1935 64.2325 -35.7487  255 255 255
-24.0448 66.1023 -43.7719  255 255 255
-48.5333 61.2893 -29.5903  255 255 255
-17.2421 66.3613 -48.6898  255 255 255
39.6683 77.3751 -82.7435  255 255 255
14.3044 71.4118 -68.6384  255 255 255
-16.5375 63.397 -51.9471  255 255 255
-50.157 56.9578 -32.0782  255 255 255
10.5907 67.0981 -69.3967  255 255 255
10.3716 65.5222 -70.086  255 255 255
22.7312 67.6803 -78.4984  255 255 255
14.1124 65.5718 -72.3308  255 255 255
-160.195 74.0552 -103.328  255 255 255
26.8769 61.3387 -87.874  255 255 255
46.6284 64.2151 -99.3142  255 255 255
-3.71131 54.3709 -66.3614  255 255 255
27.6248 59.8199 -87.6442  255 255 255
2.46591 54.9777 -74.2065  255 255 255
-8.94196 52.6103 -65.6943  255 255 255
35.5269 59.3021 -94.9865  255 255 255
-75.188 41.9614 -26.431  255 255 255
-80.0132 40.7981 -22.5304  255 255 255
-26.8267 47.26 -55.1988  255 255 255
-13.0053 48.4083 -68.1645  255 255 255
-58.5982 41.4235 -38.8231  255 255 255
-72.0876 38.4982 -30.5427  255 255 255
-72.1567 38.6597 -31.0743  255 255 255
-31.1777 44.5408 -57.9123  255 255 255
-73.7013 38.2893 -30.8178  255 255 255
-73.9652 37.9685 -30.9003  255 255 255
-77.3426 37.0163 -28.5337  255 255 255
-77.3426 37.0163 -28.5337  255 255 255
-14.5739 44.9397 -69.8172  255 255 255
-14.5834 44.9249 -69.7929  255 255 255
-54.4944 39.2733 -44.1893  255 255 255
-58.6137 36.0956 -43.525  255 255 255
-76.0931 32.0352 -31.6247  255 255 255
-11.35 40.2002 -75.9699  255 255 255
-36.2514 35.482 -61.0281  255 255 255
-36.2905 35.6097 -61.4923  255 255 255
-81.5517 29.0879 -33.0378  255 255 255
-51.9167 30.6952 -53.361  255 255 255
-51.9285 30.7409 -53.5515  255 255 255
4.59115 31.7243 -68.115  255 255 255
-83.6642 24.9159 -34.4976  255 255 255
-81.7583 23.626 -37.1987  255 255 255
-78.2187 24.0922 -40.1453  255 255 255
-83.1464 22.5654 -35.898  255 255 255
9.27328 23.6707 -58.6679  255 255 255
-77.8296 22.6909 -41.7922  255 255 255
7.00833 23.2983 -58.2588  255 255 255
4.59262 22.2761 -56.6054  255 255 255
-69.3324 19.8054 -49.3427  255 255 255
-73.7358 16.4501 -46.2522  255 255 255
-7.53692 2.40977 21.6175  255 255 255
-7.61059 2.40044 21.8285  255 255 255
-13.225 12.3108 -45.2526  255 255 255
-17.7093 12.491 -46.3116  255 255 255
-15.0794 11.2109 -44.0834  255 255 255
-10.8531 0.649991 23.3258  255 255 255
-15.0366 -0.54732 20.006  255 255 255
-9.97271 -1.76754 27.4642  255 255 255
-16.0023 0.903409 7.9598  255 255 255
-37.0605 7.58128 -39.1585  255 255 255
-16.6754 0.118149 8.83993  255 255 255
-16.6394 0.148166 8.66268  255 255 255
-17.1684 -0.533337 9.71167  255 255 255
-66.9463 5.53188 -34.4044  255 255 255
-17.2652 -0.868455 10.1663  255 255 255
-13.662 -2.93022 25.8749  255 255 255
-9.19498 -3.53648 29.2471  255 255 255
-71.6063 4.59175 -34.2215  255 255 255
-72.8624 3.92011 -32.2983  255 255 255
-18.2262 -2.46455 12.0934  255 255 255
-15.6519 -5.09449 26.0231  255 255 255
-7.04873 -6.49284 32.498  255 255 255
-81.2244 -0.715832 -26.6396  255 255 255
-20.2657 -5.70029 16.0416  255 255 255
-23.8421 -5.19354 10.8368  255 255 255
-11.6122 -8.49825 31.4928  255 255 255
-39.4234 189.306 -106.072  255 255 255
-43.7001 187.775 -105.328  255 255 255
-108.581 180.106 -90.0998  255 255 255
-19.3206 167.184 -85.9956  255 255 255
-58.3666 154.659 -69.5391  255 255 255
-87.2969 144.834 -53.8006  255 255 255
-87.2969 144.834 -53.8006  255 255 255
-6.1006 141.804 -58.4125  255 255 255
17.7943 133.209 -48.7244  255 255 255
-60.8832 151.005 -66.7761  255 255 255
-63.497 150.51 -65.9305  255 255 255
-81.9005 145.543 -57.1247  255 255 255
-43.5892 153.741 -72.8893  255 255 255
-82.4824 145.426 -57.3192  255 255 255
-73.4667 147.373 -61.2057  255 255 255
-93.6441 140.314 -49.4156  255 255 255
-80.8522 145.137 -57.5738  255 255 255
-40.1864 153.017 -73.8839  255 255 255
-51.5401 149.91 -68.8113  255 255 255
-91.7383 139.41 -49.8113  255 255 255
-77.5023 144.224 -58.7029  255 255 255
-96.9325 138.529 -48.5861  255 255 255
-65.3756 145.345 -62.4534  255 255 255
-43.0977 149.207 -70.3079  255 255 255
7.1259 132.677 -52.1793  255 255 255
-72.8907 143.476 -59.6227  255 255 255
-94.8361 136.977 -47.9872  255 255 255
-75.3797 142.641 -58.3107  255 255 255
-103.266 157.454 -76.124  255 255 255
-89.0435 137.064 -50.2824  255 255 255
-94.0785 135.691 -48.081  255 255 255
-73.2207 141.222 -58.3705  255 255 255
-9.57228 126.35 -44.7428  255 255 255
-66.234 141.602 -60.6606  255 255 255
-67.4542 141.139 -60.2341  255 255 255
-67.4542 141.139 -60.2341  255 255 255
18.2891 129.668 -52.9519  255 255 255
-78.8382 138.047 -55.4248  255 255 255
-77.4641 138.304 -55.8846  255 255 255
-63.0365 140.988 -61.4221  255 255 255
-61.4542 140.716 -61.4888  255 255 255
-65.1801 139.755 -60.1012  255 255 255
0.169305 126.944 -48.8717  255 255 255
-81.7472 115.108 -23.2778  255 255 255
-75.3061 136.67 -55.4942  255 255 255
-58.1551 140.096 -62.411  255 255 255
-13.022 122.903 -42.3414  255 255 255
-63.17 138.161 -59.4827  255 255 255
-63.8067 136.788 -58.8939  255 255 255
-95.733 124.75 -42.2251  255 255 255
-17.8835 114.727 -36.9839  255 255 255
-99.8551 119.23 -37.2597  255 255 255
-70.2125 104.222 -18.3832  255 255 255
-16.024 112.157 -36.7787  255 255 255
-95.5935 121.288 -42.0204  255 255 255
-94.2867 120.707 -41.8682  255 255 255
-98.9303 118.696 -40.0519  255 255 255
-74.5196 99.3538 -15.0181  255 255 255
18.5121 115.168 -50.0588  255 255 255
-14.1768 105.189 -34.7475  255 255 255
-112.154 122.156 -51.7772  255 255 255
-112.333 121.041 -51.3755  255 255 255
-112.395 121.128 -51.4738  255 255 255
-53.7952 97.8789 -22.3809  255 255 255
-12.3284 99.3329 -35.6996  255 255 255
-82.6393 88.916 -12.3176  255 255 255
-1.21654 97.4997 -36.5259  255 255 255
-114.654 110.382 -46.607  255 255 255
-116.072 110.276 -46.4186  255 255 255
-118.261 104.725 -43.0696  255 255 255
32.6662 101.568 -54.4543  255 255 255
-44.7511 84.2913 -21.6917  255 255 255
12.6448 89.4094 -53.5906  255 255 255
10.8397 88.2101 -51.5288  255 255 255
18.3595 89.3897 -55.6018  255 255 255
-55.5796 70.6301 -12.4961  255 255 255
17.8524 87.5581 -57.3416  255 255 255
-46.5019 72.4211 -20.459  255 255 255
-67.1854 67.0867 -7.26908  255 255 255
-65.0804 67.9427 -9.38348  255 255 255
22.286 87.0961 -61.3813  255 255 255
3.06802 83.2723 -52.0619  255 255 255
-79.6812 63.3782 -3.18933  255 255 255
-7.66733 79.1122 -44.6649  255 255 255
43.1983 89.0858 -74.8746  255 255 255
-27.0705 72.6428 -35.8084  255 255 255
-27.0751 72.6495 -35.7672  255 255 255
42.973 89.5489 -80.6811  255 255 255
-20.6565 73.3489 -39.8688  255 255 255
-42.0008 68.3605 -27.5297  255 255 255
-4.27181 75.39 -50.3403  255 255 255
56.4847 87.016 -86.2661  255 255 255
45.1429 80.8808 -83.6996  255 255 255
-2.99418 70.9896 -56.0417  255 255 255
-68.0184 57.6689 -17.7476  255 255 255
-4.94404 69.3426 -55.9027  255 255 255
53.4326 79.6467 -90.3526  255 255 255
-69.0357 56.3161 -18.2634  255 255 255
-69.0357 56.3161 -18.2634  255 255 255
11.1712 70.9257 -67.0875  255 255 255
22.1283 69.0727 -73.4996  255 255 255
36.3377 71.0628 -86.2913  255 255 255
-40.6011 55.751 -40.2298  255 255 255
8.68352 62.4206 -69.1023  255 255 255
-11.8088 59.6708 -59.5741  255 255 255
-52.7574 51.8331 -34.7305  255 255 255
-52.7821 51.848 -34.7075  255 255 255
-52.7821 51.848 -34.7075  255 255 255
-26.5108 53.2543 -53.2806  255 255 255
26.431 59.3688 -90.4343  255 255 255
-59.505 41.6003 -37.7861  255 255 255
-59.42 41.5481 -37.4862  255 255 255
-65.8526 37.5516 -37.1267  255 255 255
-72.284 35.4699 -33.6894  255 255 255
-9.35876 41.5093 -75.2684  255 255 255
-40.3456 36.6263 -56.5966  255 255 255
-65.8507 32.3766 -41.4753  255 255 255
-77.7878 29.9631 -34.6007  255 255 255
-59.3024 30.9452 -48.1589  255 255 255
-59.9637 28.99 -49.1875  255 255 255
-62.9896 27.3681 -48.4045  255 255 255
-77.3129 25.3307 -39.4219  255 255 255
11.7582 24.527 -61.2251  255 255 255
7.87189 21.5987 -57.6542  255 255 255
-77.2403 20.4649 -43.9327  255 255 255
-78.5121 18.0523 -43.8109  255 255 255
-76.088 17.7255 -46.8469  255 255 255
-22.6724 11.8161 -43.3668  255 255 255
-69.4075 9.30225 -38.9856  255 255 255
-92.5733 8.23041 -35.5912  255 255 255
-8.22148 -2.41086 28.7424  255 255 255
-20.8887 5.21194 -36.1594  255 255 255
-11.613 -2.7703 27.3961  255 255 255
-20.7766 0.150422 4.02692  255 255 255
-24.5402 4.66408 -35.7644  255 255 255
-85.0282 4.00668 -32.1157  255 255 255
-71.7142 3.97307 -32.6515  255 255 255
-85.0977 3.51459 -31.3643  255 255 255
-26.8773 1.33361 -30.8296  255 255 255
-25.757 -1.35765 -26.8434  255 255 255
-68.6965 -1.57839 -26.7862  255 255 255
-24.8247 -6.85988 13.6359  255 255 255
-43.5602 -3.48577 -26.4931  255 255 255
-11.2705 -8.8292 31.6751  255 255 255
-40.3274 -4.91281 -23.2039  255 255 255
-21.5145 -8.37766 19.2595  255 255 255
-21.86 -8.45111 19.393  255 255 255
15.7695 137.145 -46.8283  255 255 255
16.4693 136.709 -47.0115  255 255 255
-0.934884 127.226 -48.447  255 255 255
-6.5845 121.856 -43.9518  255 255 255
-65.0598 101.387 -19.1291  255 255 255
-104.727 119.204 -44.1788  255 255 255
2.28578 108.343 -41.9618  255 255 255
-99.7397 115.629 -43.2593  255 255 255
-99.6531 115.439 -43.1416  255 255 255
-99.0448 115.167 -43.5421  255 255 255
-110.124 120.872 -51.8698  255 255 255
-111.313 119.061 -50.7527  255 255 255
-115.908 114.113 -48.1613  255 255 255
-114.392 111.446 -46.7399  255 255 255
-116.262 109.298 -45.7628  255 255 255
-116.61 107.217 -44.9652  255 255 255
-116.61 107.217 -44.9652  255 255 255
-113.049 105.973 -44.9152  255 255 255
26.6282 98.126 -54.5484  255 255 255
-76.3483 74.3378 -4.8516  255 255 255
22.5517 92.3491 -56.3669  255 255 255
-9.58006 85.1494 -40.4815  255 255 255
-33.3613 76.8522 -26.7264  255 255 255
56.0303 96.135 -77.974  255 255 255
40.6482 92.7209 -69.855  255 255 255
25.1997 88.4314 -62.5405  255 255 255
0.082736 82.1395 -47.9516  255 255 255
1.47101 82.0003 -49.4339  255 255 255
-82.7654 62.0837 -0.236929  255 255 255
-42.3924 70.6406 -24.9712  255 255 255
-91.3489 66.7539 -12.6422  255 255 255
56.7717 88.8115 -84.7218  255 255 255
16.3039 78.157 -63.281  255 255 255
18.4448 78.2606 -65.2415  255 255 255
-36.3692 66.9283 -33.0812  255 255 255
-64.0307 59.2759 -20.1462  255 255 255
-16.7468 66.8031 -48.2589  255 255 255
-2.26722 69.2732 -57.9029  255 255 255
0.876035 62.7319 -66.15  255 255 255
-25.5685 53.9359 -52.9883  255 255 255
46.6075 65.488 -97.3057  255 255 255
6.55381 57.1334 -71.549  255 255 255
-7.49765 53.9813 -65.5149  255 255 255
-13.5522 51.1394 -66.0453  255 255 255
-76.97 37.4115 -27.8337  255 255 255
-61.1316 37.9692 -40.112  255 255 255
-66.8797 36.7894 -38.0832  255 255 255
-127.453 48.8362 -78.644  255 255 255
-82.0058 33.3673 -27.9815  255 255 255
-79.8913 33.6208 -29.51  255 255 255
-1.84117 43.9074 -81.0683  255 255 255
-80.5809 32.4402 -29.5507  255 255 255
-27.5578 37.7237 -65.3418  255 255 255
13.7476 38.4 -77.0521  255 255 255
9.8773 36.6839 -73.4486  255 255 255
-64.1971 30.2032 -44.2373  255 255 255
-53.7201 31.2669 -51.8227  255 255 255
-1.81193 27.3534 -62.9154  255 255 255
-88.6972 23.9453 -38.6142  255 255 255
1.04698 21.1072 -56.8622  255 255 255
-70.5095 20.3302 -50.1125  255 255 255
-14.2186 11.9082 -44.567  255 255 255
-16.8982 11.4241 -44.2278  255 255 255
-18.3337 9.35178 -41.7901  255 255 255
-15.9669 -2.16626 22.8246  255 255 255
-29.5503 5.25193 -37.1532  255 255 255
-16.6063 -2.24308 21.283  255 255 255
-22.211 -0.478368 4.86271  255 255 255
-32.3414 2.52054 -33.6773  255 255 255
-9.8856 -5.11601 30.364  255 255 255
-17.3228 -5.25154 24.1168  255 255 255
-36.1398 0.196656 -29.9127  255 255 255
-17.9998 -6.2514 23.9924  255 255 255
-18.7381 -6.32966 22.2073  255 255 255
-39.4075 -4.04024 -24.9227  255 255 255
-27.7041 -7.3811 14.4329  255 255 255
-59.9661 196.355 -112.315  255 255 255
-98.7779 119.979 -39.6298  255 255 255
-104.68 121.335 -42.4743  255 255 255
-96.7095 116.882 -43.3506  255 255 255
-135.228 123.104 -61.5689  255 255 255
39.8464 100.173 -60.9821  255 255 255
-12.075 81.264 -39.5731  255 255 255
-74.8829 64.9353 -4.25391  255 255 255
-47.6997 69.5492 -21.7368  255 255 255
42.1834 87.9539 -74.7216  255 255 255
56.2703 91.0217 -83.7385  255 255 255
-42.5885 67.8501 -28.0104  255 255 255
44.7716 86.3686 -79.0254  255 255 255
-8.02406 71.8644 -51.5886  255 255 255
22.6013 74.5868 -71.2568  255 255 255
41.2743 73.2825 -86.8538  255 255 255
41.5389 69.9224 -88.2522  255 255 255
32.7233 66.7763 -82.8007  255 255 255
32.6572 63.3548 -88.3852  255 255 255
-33.1836 48.2976 -52.5633  255 255 255
2.89332 51.7752 -74.5798  255 255 255
-59.741 42.3539 -37.3409  255 255 255
-51.6985 39.4504 -45.1434  255 255 255
-67.2652 36.0642 -38.2978  255 255 255
-13.675 40.4026 -74.2544  255 255 255
-80.157 21.7414 -37.5157  255 255 255
-84.2441 20.3118 -35.7752  255 255 255
5.72695 19.4564 -54.8499  255 255 255
-80.3391 18.303 -42.1235  255 255 255
-17.1337 9.10322 -41.7938  255 255 255
-93.4088 8.00091 -35.6264  255 255 255
-15.7819 -1.95058 22.1327  255 255 255
-8.23164 -3.19097 29.4073  255 255 255
-33.5193 4.80739 -34.2438  255 255 255
-26.8174 3.06886 -33.848  255 255 255
-15.7707 -3.8839 24.6946  255 255 255
-50.2585 0.412535 -30.5797  255 255 255
-23.5534 -4.22097 10.0307  255 255 255
-26.9909 -0.875566 -29.2449  255 255 255
-26.4063 -4.44889 10.1467  255 255 255
-40.5567 -1.87364 -26.9392  255 255 255
-18.5399 -6.84113 23.4139  255 255 255
15.5612 211.763 -134.187  255 255 255
-74.8136 188.884 -104.019  255 255 255
-40.7635 73.5072 -24.8781  255 255 255
-52.0547 69.1837 -19.3201  255 255 255
-79.832 61.3369 -4.32668  255 255 255
-10.2291 73.6255 -45.2126  255 255 255
-0.125754 72.2033 -57.0391  255 255 255
-63.9048 47.1004 -31.2492  255 255 255
21.8493 60.1811 -84.1876  255 255 255
-7.78643 53.1405 -67.6174  255 255 255
-8.17958 43.3079 -75.7923  255 255 255
-80.3094 24.4786 -37.9442  255 255 255
-80.1391 24.3455 -37.2617  255 255 255
8.69467 21.7134 -55.8443  255 255 255
-18.0791 -1.72832 11.2757  255 255 255
-38.2985 -1.08941 -28.8906  255 255 255
-38.5246 154.507 -74.8908  255 255 255
-38.5476 154.613 -75.0166  255 255 255
-74.8599 144.806 -59.6031  255 255 255
-52.5766 148.73 -68.1265  255 255 255
-68.6392 145.373 -62.0061  255 255 255
-68.6392 145.373 -62.0061  255 255 255
-41.3189 148.146 -71.4194  255 255 255
16.9106 86.9469 -55.9818  255 255 255
-158.446 98.3591 -109.87  255 255 255
36.0859 60.0713 -95.7211  255 255 255
31.6258 58.8734 -92.6682  255 255 255
-11.8537 45.1169 -70.341  255 255 255
-74.1429 34.3366 -32.4371  255 255 255
-5.81852 43.0921 -76.2624  255 255 255
-19.7614 29.2161 -65.3582  255 255 255
-77.8444 23.6757 -41.0024  255 255 255
-18.8032 -1.33471 10.5475  255 255 255
-19.1774 -4.05893 14.3243  255 255 255
-63.4465 144.155 -63.4801  255 255 255
-11.6998 110.147 -38.0745  255 255 255
19.4657 113.117 -50.6504  255 255 255
-12.3917 51.6606 -64.6161  255 255 255
-24.8923 46.478 -58.2222  255 255 255
-76.6155 30.1446 -35.2242  255 255 255
22.1786 22.6977 -58.6776  255 255 255
-114.358 186.828 -96.1457  255 255 255
-59.3111 147.617 -65.5155  255 255 255
43.4951 68.7584 -90.757  255 255 255
31.5358 65.1725 -81.1871  255 255 255
-1.29709 52.4117 -70.1762  255 255 255
-29.447 46.2332 -56.8009  255 255 255
-14.8321 42.2655 -68.2043  255 255 255
-80.9728 64.6754 -2.83015  255 255 255
-21.7917 45.2971 -62.9956  255 255 255
6.12332 64.7352 -67.3489  255 255 255
-40.3886 35.6658 -61.1433  255 255 255
52.2499 49.5146 -10.9341  255 255 255
52.163 49.2777 -11.6778  255 255 255
52.0906 49.2362 -11.5593  255 255 255
50.002 48.6273 -16.0789  255 255 255
49.4657 34.0506 14.2473  255 255 255
50.2755 47.5991 -16.5568  255 255 255
20.1492 74.85 -70.6737  255 255 255
48.9886 74.7474 -89.7114  255 255 255
53.1856 74.7598 -91.7942  255 255 255
44.205 73.7099 -87.5879  255 255 255
21.3065 72.201 -74.868  255 255 255
15.3439 69.8933 -68.9402  255 255 255
-3.23633 68.1868 -56.743  255 255 255
-10.7652 67.6729 -52.2804  255 255 255
-2.16171 68.2615 -57.5608  255 255 255
49.1748 42.0822 -21.9102  255 255 255
49.1748 42.0822 -21.9102  255 255 255
49.8556 41.8689 -21.7833  255 255 255
7.93605 68.8539 -65.7513  255 255 255
53.1334 71.7744 -95.2002  255 255 255
42.6275 69.363 -88.4204  255 255 255
55.237 70.8701 -98.7218  255 255 255
55.237 70.8701 -98.7218  255 255 255
53.3758 23.7144 13.8859  255 255 255
15.9764 66.4013 -72.9466  255 255 255
49.931 25.4192 8.8003  255 255 255
50.6522 24.9932 9.59129  255 255 255
53.3427 22.3723 13.9978  255 255 255
53.8767 21.4146 15.5976  255 255 255
