ply
format ascii 1.0
element vertex 1253
property float x
property float y
property float z
property uchar red
property uchar green
property uchar blue
end_header
-1.09865 85.635 -61.5234  255 255 255
18.2696 78.059 -48.234  255 255 255
-3.86222 75.9262 -46.5542  255 255 255
-8.74821 82.4205 -57.1786  255 255 255
-19.9134 77.0733 -50.2771  255 255 255
-19.672 77.8359 -48.8594  255 255 255
-52.2564 67.3501 -29.4905  255 255 255
-56.983 66.2627 -25.261  255 255 255
16.451 92.7646 -82.9924  255 255 255
12.3119 67.3827 -31.5519  255 255 255
-53.0724 65.8389 -28.2611  255 255 255
-38.6171 71.2395 -39.5679  255 255 255
20.7404 86.4429 -75.7206  255 255 255
-39.5534 67.8902 -36.4823  255 255 255
19.3912 86.3668 -76.0901  255 255 255
20.6901 85.2841 -72.1391  255 255 255
-17.9204 77.1808 -53.628  255 255 255
-220.642 170.135 -234.19  255 255 255
15.4597 82.6262 -70.7555  255 255 255
-39.7063 69.6992 -41.2519  255 255 255
-39.701 70.7361 -41.6467  255 255 255
-54.0451 65.4679 -32.1003  255 255 255
-54.4038 65.2902 -32.1535  255 255 255
4.55127 82.7062 -70.6163  255 255 255
13.8173 63.8588 -34.8293  255 255 255
-3.61239 65.8625 -39.7718  255 255 255
-16.4272 75.0002 -55.1042  255 255 255
-42.1266 66.6175 -38.5129  255 255 255
-2.02839 68.1784 -40.9282  255 255 255
2.52779 73.4681 -55.5767  255 255 255
-12.9212 71.2746 -49.4232  255 255 255
-33.6342 67.8649 -44.0796  255 255 255
-18.7342 88.0651 -89.2856  255 255 255
-46.4871 67.8644 -47.8017  255 255 255
-14.1149 73.2544 -59.2151  255 255 255
42.9618 84.6977 -90.5904  255 255 255
22.1987 87.2457 -97.4527  255 255 255
-12.759 70.083 -66.8341  255 255 255
-48.2019 64.4745 -50.6608  255 255 255
15.9864 76.9383 -84.8546  255 255 255
15.8192 72.1566 -82.8546  255 255 255
39.1914 94.8058 -136.072  255 255 255
31.5663 95.6493 -136.341  255 255 255
-246.6 141.435 -276.436  255 255 255
36.4334 75.6935 -115.874  255 255 255
54.1074 75.0547 -118.265  255 255 255
0.812211 61.5736 -81.5308  255 255 255
33.7726 70.1518 -105.727  255 255 255
11.4611 69.8658 -108.125  255 255 255
-0.614665 71.926 -113.304  255 255 255
40.2088 67.7972 -109.262  255 255 255
-71.8808 43.8259 -34.4812  255 255 255
-79.6657 45.8379 -38.7255  255 255 255
-24.0405 53.2595 -70.7633  255 255 255
-9.59578 56.1758 -83.4988  255 255 255
-58.9379 52.9576 -76.1213  255 255 255
-70.5859 42.5689 -45.7218  255 255 255
-71.174 42.2975 -49.05  255 255 255
-27.5464 56.3028 -88.246  255 255 255
-69.6891 39.7216 -40.8167  255 255 255
-70.8044 39.6499 -42.0519  255 255 255
-77.698 42.1948 -45.97  255 255 255
-77.3921 41.301 -46.4214  255 255 255
-8.94934 56.003 -102.011  255 255 255
-9.19 57.1111 -101.666  255 255 255
-52.6379 44.1258 -63.4805  255 255 255
-56.9909 43.6779 -72.1145  255 255 255
-76.2148 35.2389 -48.1538  255 255 255
-6.40878 49.7532 -101.924  255 255 255
-31.7926 42.7503 -83.7283  255 255 255
-33.4497 43.7981 -84.0227  255 255 255
-81.3709 32.1299 -52.1097  255 255 255
-48.8416 35.9147 -70.9685  255 255 255
-49.4964 36.1498 -72.3826  255 255 255
1.54201 29.4046 -49.1666  255 255 255
-83.2864 28.59 -55.9787  255 255 255
-81.8387 27.2791 -58.2025  255 255 255
-76.5948 26.5345 -57.5859  255 255 255
-84.5979 28.5747 -61.0581  255 255 255
17.3172 31.8334 -82.8337  255 255 255
-76.5631 24.9883 -57.9203  255 255 255
14.3687 31.4252 -81.7324  255 255 255
-0.225195 18.5801 -29.785  255 255 255
-70.2893 26.3029 -81.9308  255 255 255
-73.4093 21.1458 -70.0328  255 255 255
-9.44151 -0.885981 38.1142  255 255 255
-5.14581 1.60636 23.5788  255 255 255
-8.59099 15.9307 -57.0256  255 255 255
-13.1249 17.553 -69.6118  255 255 255
-11.1669 15.4215 -55.9394  255 255 255
-8.48333 -0.154958 25.6488  255 255 255
-16.5839 -3.78898 40.8758  255 255 255
-8.4353 -1.47343 28.8013  255 255 255
-16.8983 -1.46822 27.8286  255 255 255
-33.4923 9.43598 -49.8866  255 255 255
-13.1502 0.203813 8.1942  255 255 255
-12.398 0.360452 7.79182  255 255 255
-13.7156 -1.07261 9.9344  255 255 255
-63.9512 8.36391 -53.1893  255 255 255
-13.1678 -0.567292 8.83581  255 255 255
-10.4933 -4.17479 28.3159  255 255 255
-7.53776 -3.53476 32.1413  255 255 255
-69.0441 6.65 -48.4153  255 255 255
-69.2181 6.04303 -42.8863  255 255 255
-14.4039 -3.03012 12.3213  255 255 255
-12.5546 -4.94218 30.4824  255 255 255
-4.68233 -8.212 32.7176  255 255 255
-80.5877 1.34623 -50.1927  255 255 255
-17.5756 -5.40734 17.7465  255 255 255
-21.4691 -5.06408 11.0661  255 255 255
-9.78135 -7.36911 35.0495  255 255 255
-42.9979 258.924 -176.622  255 255 255
-49.43 257.669 -174.813  255 255 255
-140.418 258.429 -174.634  255 255 255
-16.7907 210.994 -129.591  255 255 255
-63.3283 189.026 -106.693  255 255 255
-97.4315 177.37 -90.5128  255 255 255
-97.9812 176.473 -88.9921  255 255 255
-1.58855 164.49 -81.5699  255 255 255
23.5996 152.766 -68.533  255 255 255
-65.4316 183.414 -101.935  255 255 255
-69.1625 183.318 -100.853  255 255 255
-91.0948 178.054 -92.5742  255 255 255
-45.2221 188.514 -109.253  255 255 255
-92.1318 179.256 -94.6403  255 255 255
-81.4836 179.101 -96.5351  255 255 255
-106.559 172.035 -85.1921  255 255 255
-90.1053 178.497 -93.761  255 255 255
-40.9815 186.724 -109.816  255 255 255
-55.0829 182.035 -103.253  255 255 255
-102.141 169.891 -84.6207  255 255 255
-85.54 174.72 -94.7415  255 255 255
-109.973 169.852 -86.364  255 255 255
-69.9775 174.344 -96.09  255 255 255
-44.6574 180.439 -104.781  255 255 255
12.3872 152.88 -71.9965  255 255 255
-79.4584 173.852 -93.4534  255 255 255
-107.485 167.693 -83.2435  255 255 255
-81.1813 171.17 -91.8513  255 255 255
-125.599 210.733 -138.951  255 255 255
-98.9125 165.859 -83.1623  255 255 255
-105.431 164.606 -82.3416  255 255 255
-80.2729 169.73 -91.5699  255 255 255
-6.4753 140.512 -59.7465  255 255 255
-70.2518 167.071 -89.274  255 255 255
-72.68 168.868 -93.5861  255 255 255
-72.7624 168.876 -92.3261  255 255 255
23.9239 150.181 -74.6031  255 255 255
-85.5611 166.254 -87.3531  255 255 255
-84.9093 165.644 -88.3326  255 255 255
-67.1192 167.987 -92.8454  255 255 255
-65.0554 167.913 -92.0392  255 255 255
-70.5335 166.207 -91.3996  255 255 255
4.25445 143.471 -66.2937  255 255 255
-84.0207 126.298 -39.9101  255 255 255
-80.9868 163.199 -87.4001  255 255 255
-61.7387 166.221 -93.6872  255 255 255
-10.1624 136.029 -57.4704  255 255 255
-67.6466 163.966 -90.347  255 255 255
-67.1667 161.683 -89.6256  255 255 255
-103.927 148.853 -74.5251  255 255 255
-16.1429 125.585 -49.6977  255 255 255
-111.002 142.713 -68.0623  255 255 255
-70.3485 110.655 -28.491  255 255 255
-13.7866 120.971 -49.724  255 255 255
-105.914 144.412 -73.311  255 255 255
-101.61 141.7 -69.3868  255 255 255
-107.224 139.599 -67.8984  255 255 255
-73.2328 103.509 -22.5818  255 255 255
25.5519 131.985 -70.4342  255 255 255
-11.9584 114.753 -45.3549  255 255 255
-132.498 159.675 -103.906  255 255 255
-132.444 157.422 -102.196  255 255 255
-128.958 151.377 -94.2684  255 255 255
-53.0579 101.848 -29.9882  255 255 255
-8.85973 108.361 -47.8285  255 255 255
-83.0915 95.1847 -24.273  255 255 255
2.44505 106.4 -46.8573  255 255 255
-129.045 134.737 -85.052  255 255 255
-132.802 138.02 -89.036  255 255 255
-134.824 130.098 -84.8347  255 255 255
42.399 118.484 -78.2526  255 255 255
-42.4704 87.4108 -27.6108  255 255 255
5.74496 74.8027 -22.8377  255 255 255
14.8457 94.868 -62.4654  255 255 255
25.3513 104.074 -75.9973  255 255 255
-53.8104 74.332 -22.6163  255 255 255
22.0767 95.9936 -69.3836  255 255 255
-43.4628 74.0447 -25.8572  255 255 255
-64.1894 68.7264 -12.6716  255 255 255
-61.791 68.4897 -14.5964  255 255 255
25.8765 93.8667 -69.8571  255 255 255
-0.263436 73.7664 -29.849  255 255 255
-76.5372 65.1051 -10.691  255 255 255
-8.3832 72.3413 -28.9899  255 255 255
47.9536 98.2094 -84.7598  255 255 255
-24.253 79.0411 -47.5655  255 255 255
-23.0081 78.5482 -46.0692  255 255 255
31.9845 75.979 -45.0835  255 255 255
-17.6694 79.7043 -52.0649  255 255 255
-39.4117 73.7778 -37.3276  255 255 255
-1.15006 82.8077 -60.3684  255 255 255
59.8808 94.4642 -92.5621  255 255 255
47.4773 87.6226 -87.4976  255 255 255
1.89426 82.264 -75.5876  255 255 255
-65.3933 58.4233 -24.7782  255 255 255
0.0932965 78.1882 -69.8117  255 255 255
58.2974 88.343 -100.95  255 255 255
-67.0088 60.0489 -27.6352  255 255 255
-67.1677 58.1464 -27.5708  255 255 255
7.56574 63.6501 -44.0099  255 255 255
42.7233 102.399 -142.171  255 255 255
48.7596 90.6719 -123.372  255 255 255
-38.1346 62.2831 -55.7887  255 255 255
5.58312 57.0629 -49.8145  255 255 255
-7.64273 65.6297 -69.9582  255 255 255
-53.4098 69.2028 -79.7414  255 255 255
-50.7231 58.6145 -51.0681  255 255 255
-49.56 58.3622 -51.146  255 255 255
-23.3998 59.9257 -68.7023  255 255 255
53.1179 99.821 -194.606  255 255 255
-56.8045 45.1272 -51.7282  255 255 255
-56.7121 47.1656 -56.6484  255 255 255
-64.5314 41.1831 -49.7001  255 255 255
-69.3441 37.9562 -46.7649  255 255 255
-4.35509 51.8735 -98.1889  255 255 255
-38.6468 42.3756 -73.6058  255 255 255
-65.1552 36.8405 -60.3383  255 255 255
-76.2243 34.2362 -50.6765  255 255 255
-59.8182 40.66 -86.7763  255 255 255
-57.9449 34.2016 -70.5498  255 255 255
-61.1889 31.3598 -65.2507  255 255 255
-74.9877 28.2205 -53.6811  255 255 255
17.2075 30.8678 -77.3731  255 255 255
12.6342 27.0679 -73.3624  255 255 255
-75.443 23.3393 -60.8856  255 255 255
-80.8177 24.3276 -75.5887  255 255 255
-75.0017 21.3703 -65.6678  255 255 255
-16.8479 16.0287 -60.7963  255 255 255
-68.6722 13.0306 -63.8755  255 255 255
-98.9313 13.4999 -78.2615  255 255 255
-6.12065 -2.02298 29.3819  255 255 255
-16.1024 7.44966 -52.3952  255 255 255
-9.74804 -3.52157 31.6958  255 255 255
-17.5302 -0.481466 3.29083  255 255 255
-20.3016 8.30002 -47.1288  255 255 255
-87.997 7.50536 -64.7935  255 255 255
-68.644 5.87705 -45.0708  255 255 255
-87.9471 7.4441 -61.9998  255 255 255
-23.0709 3.60639 -39.4381  255 255 255
-23.4198 0.268418 -21.7086  255 255 255
-64.3704 0.046621 -35.2897  255 255 255
-22.8266 -7.55844 28.9787  255 255 255
-39.335 -1.59729 -35.8907  255 255 255
-8.97438 -9.34729 35.0323  255 255 255
-35.5028 -2.84636 -27.0865  255 255 255
-17.0266 -7.89129 19.9925  255 255 255
-18.4559 -8.57702 18.8631  255 255 255
22.2654 159.93 -70.3137  255 255 255
23.0297 160.592 -71.1104  255 255 255
3.13586 143.459 -66.6101  255 255 255
-3.08486 135.666 -59.1614  255 255 255
-63.7696 106.761 -27.8044  255 255 255
-116.543 143.481 -77.7723  255 255 255
6.66175 120.307 -55.6376  255 255 255
-110.213 138.474 -77.1574  255 255 255
-108.549 136.548 -73.0066  255 255 255
-110.393 138.673 -77.2361  255 255 255
-124.59 151.091 -91.9964  255 255 255
-128.999 151.342 -97.266  255 255 255
-132.704 141.958 -90.008  255 255 255
-132.744 142.035 -92.3458  255 255 255
-132.64 137.036 -87.8692  255 255 255
-133.233 133.666 -87.6526  255 255 255
-133.426 133.965 -86.4067  255 255 255
-130.18 134.232 -88.5505  255 255 255
31.5302 108.548 -69.5515  255 255 255
-73.8205 74.7126 -12.5446  255 255 255
26.0073 99.042 -64.883  255 255 255
-9.53561 75.9286 -23.0835  255 255 255
-30.0678 79.725 -31.8234  255 255 255
66.4243 113.161 -99.9854  255 255 255
48.1613 106.547 -87.3289  255 255 255
27.7972 96.5926 -71.4349  255 255 255
4.49513 88.97 -59.3551  255 255 255
5.48574 90.5243 -61.0403  255 255 255
-80.2736 64.0021 -8.10076  255 255 255
-39.1017 76.3433 -37.1563  255 255 255
-92.923 72.8533 -26.8355  255 255 255
63.0207 99.5872 -97.4338  255 255 255
19.7879 82.296 -68.5996  255 255 255
21.1515 85.8715 -75.5628  255 255 255
-34.022 72.1234 -43.5974  255 255 255
-62.1254 62.236 -28.0523  255 255 255
-14.0068 74.0113 -60.3417  255 255 255
-2.30679 66.4 -45.5135  255 255 255
6.68948 75.2133 -90.3741  255 255 255
-21.4693 67.0979 -86.9095  255 255 255
55.1377 77.5016 -117.604  255 255 255
20.2381 81.7906 -130.576  255 255 255
1.06616 75.393 -114.519  255 255 255
-7.85251 67.089 -106.002  255 255 255
-75.8463 40.6736 -44.945  255 255 255
-58.8194 42.2565 -55.8835  255 255 255
-64.3771 40.8676 -57.4205  255 255 255
-162.825 78.9199 -173.104  255 255 255
-82.968 37.5989 -49.1743  255 255 255
-79.1971 37.1569 -46.3592  255 255 255
5.39985 57.113 -112.135  255 255 255
-81.1082 37.1695 -49.3035  255 255 255
-24.0442 46.271 -89.8199  255 255 255
19.7276 47.7285 -96.4438  255 255 255
5.34186 32.9503 -49.0834  255 255 255
-62.732 34.7065 -61.6126  255 255 255
-51.8774 35.7091 -70.7985  255 255 255
3.01661 34.3694 -79.7565  255 255 255
-98.1947 34.9496 -90.9086  255 255 255
4.66145 27.3501 -71.1804  255 255 255
-69.4648 24.4214 -71.9708  255 255 255
-10.3391 15.7156 -56.1481  255 255 255
-12.8062 16.5099 -60.4204  255 255 255
-14.2416 13.2376 -53.5469  255 255 255
-13.0652 -2.39224 17.6132  255 255 255
-25.4257 8.72269 -52.5079  255 255 255
-15.7794 -4.79061 33.8167  255 255 255
-18.8599 0.819841 -1.34493  255 255 255
-28.0363 5.07355 -46.7943  255 255 255
-7.61959 -5.9234 34.1162  255 255 255
-14.9824 -6.35636 26.1754  255 255 255
-32.0673 2.54673 -38.0796  255 255 255
-16.2166 -6.96138 28.5554  255 255 255
-16.3451 -6.26971 26.1249  255 255 255
-34.962 -2.78256 -29.4621  255 255 255
-23.0306 -4.39697 -7.17865  255 255 255
-72.1542 281.704 -199.156  255 255 255
-109.104 144.02 -71.0364  255 255 255
-115.834 144.971 -73.8389  255 255 255
-105.426 137.872 -73.4198  255 255 255
-175.974 179.928 -143.481  255 255 255
49.8561 120.56 -89.1604  255 255 255
-9.10021 88.2666 -50.0429  255 255 255
-73.3474 66.5023 -10.967  255 255 255
-44.6661 74.8186 -32.6878  255 255 255
27.198 72.1483 -35.783  255 255 255
62.7475 104.123 -98.2619  255 255 255
-40.0567 73.3009 -39.3025  255 255 255
48.6984 92.6359 -85.143  255 255 255
-4.9716 79.4651 -63.6353  255 255 255
26.4605 82.4547 -80.871  255 255 255
54.9249 92.7317 -123.436  255 255 255
43.1064 75.0326 -92.2597  255 255 255
35.2952 73.1755 -88.7293  255 255 255
19.1337 51.0754 -41.8458  255 255 255
-30.3853 55.1707 -69.6873  255 255 255
15.8293 75.4122 -135.678  255 255 255
-60.3364 53.7228 -73.8646  255 255 255
-49.0247 46.2474 -63.4165  255 255 255
-70.3296 50.5189 -82.1198  255 255 255
-7.32787 52.0659 -102.268  255 255 255
-80.8619 27.7603 -61.6028  255 255 255
-84.7579 24.644 -60.2235  255 255 255
6.46847 20.7515 -49.0593  255 255 255
-81.4989 24.6889 -69.8841  255 255 255
-12.497 12.2884 -54.6075  255 255 255
-100.77 14.5691 -79.8483  255 255 255
-15.6096 -3.87213 34.7769  255 255 255
-7.55653 -4.30999 34.5995  255 255 255
-29.1786 8.74193 -46.2156  255 255 255
-22.444 7.06503 -45.3211  255 255 255
-13.262 -4.17676 25.1494  255 255 255
-46.3158 3.24924 -41.6402  255 255 255
-22.2823 -5.38889 24.7921  255 255 255
-22.7405 2.84922 -39.3055  255 255 255
-22.4989 -3.57641 10.7408  255 255 255
-36.3453 -0.570909 -32.8794  255 255 255
-16.238 -7.24918 24.1497  255 255 255
32.5279 317.917 -242.985  255 255 255
-91.0199 263.933 -182.396  255 255 255
-37.4039 80.2467 -36.244  255 255 255
-48.9478 74.1709 -29.8999  255 255 255
-77.6031 63.8478 -11.6767  255 255 255
-5.31836 80.9813 -56.2844  255 255 255
4.17665 81.0167 -69.4193  255 255 255
-61.9224 52.582 -48.3138  255 255 255
26.708 68.821 -99.0406  255 255 255
-3.15978 61.3391 -84.5207  255 255 255
-2.19569 52.8648 -99.0456  255 255 255
-78.4341 27.7632 -52.9248  255 255 255
-80.4846 29.5293 -62.2147  255 255 255
2.00727 16.8406 -22.8866  255 255 255
-15.0259 -0.926653 11.6487  255 255 255
-34.7733 1.30452 -35.7453  255 255 255
-38.8016 189.077 -110.194  255 255 255
-39.3404 189.079 -112.491  255 255 255
-82.2058 174.259 -94.636  255 255 255
-54.8964 180.6 -102.455  255 255 255
-74.939 178.045 -95.976  255 255 255
-74.6492 177.105 -97.737  255 255 255
-42.9533 178.329 -104.805  255 255 255
23.5508 100.651 -76.2524  255 255 255
-246.386 181.952 -286.739  255 255 255
21.0067 47.8493 -45.7771  255 255 255
46.2046 77.1806 -135.522  255 255 255
-6.41857 53.4983 -91.4879  255 255 255
-73.3737 37.9123 -50.8438  255 255 255
0.00993188 53.9241 -103.511  255 255 255
-14.8343 37.0855 -89.9897  255 255 255
-77.1177 28.159 -62.3221  255 255 255
-15.7022 -0.402669 12.2971  255 255 255
-14.6083 -3.52448 12.677  255 255 255
-68.4773 173.219 -96.5619  255 255 255
-9.27917 121.106 -51.7421  255 255 255
26.1146 129.587 -71.4223  255 255 255
-7.89094 59.9995 -82.0878  255 255 255
-20.9279 54.7391 -77.6642  255 255 255
-74.446 33.2587 -47.3636  255 255 255
17.1188 21.4177 -35.9947  255 255 255
-156.621 285.88 -200.621  255 255 255
-63.744 179.27 -99.7018  255 255 255
57.2807 87.2003 -125.888  255 255 255
39.2725 77.0048 -101.278  255 255 255
3.58663 60.6737 -86.6618  255 255 255
-25.5724 54.355 -76.4833  255 255 255
-9.47016 55.0266 -107.188  255 255 255
-79.0619 66.7111 -10.7506  255 255 255
-17.8713 52.5729 -82.9149  255 255 255
11.9794 75.1592 -85.7766  255 255 255
-37.5892 43.4629 -82.7962  255 255 255
57.0759 53.1264 -15.7121  255 255 255
54.3185 49.7247 -10.4068  255 255 255
53.3798 49.2034 -9.39625  255 255 255
51.7374 49.4871 -14.0459  255 255 255
47.8806 32.3786 20.2181  255 255 255
51.4223 48.2891 -15.4986  255 255 255
21.0319 76.1489 -65.9843  255 255 255
72.3061 102.256 -142.287  255 255 255
78.3118 102.095 -146.915  255 255 255
66.1395 100.694 -138.933  255 255 255
22.3068 73.943 -71.8486  255 255 255
27.7028 90.6287 -110.021  255 255 255
4.24709 85.6288 -92.7666  255 255 255
-2.77679 84.2092 -86.2027  255 255 255
7.80489 87.0212 -92.8102  255 255 255
54.785 44.5863 -28.409  255 255 255
54.8725 45.5459 -29.0384  255 255 255
56.1728 44.9443 -28.7479  255 255 255
13.1311 77.5588 -79.9727  255 255 255
78.0114 99.3719 -151.294  255 255 255
62.8301 92.6184 -138.798  255 255 255
43.2725 64.1012 -63.8485  255 255 255
44.0802 62.1428 -63.1043  255 255 255
51.1271 22.2265 16.7242  255 255 255
29.7145 86.7711 -114.713  255 255 255
49.3348 24.6631 10.2987  255 255 255
50.7861 24.752 11.2437  255 255 255
47.4698 18.0204 23.3224  255 255 255
47.3551 17.9377 24.5134  255 255 255
21.1372 82.9757 -109.142  255 255 255
49.7212 23.0051 14.5359  255 255 255
25.0121 84.3283 -113.456  255 255 255
26.7707 83.7817 -114.259  255 255 255
45.2374 14.4927 32.0653  255 255 255
68.2705 91.0137 -149.765  255 255 255
50.1542 19.7165 16.7212  255 255 255
43.8791 13.9336 30.4143  255 255 255
53.7452 39.3029 -33.1585  255 255 255
41.8854 84.7852 -128.418  255 255 255
26.004 64.4823 -78.8688  255 255 255
51.5406 15.9676 19.7935  255 255 255
54.3033 37.2546 -30.6082  255 255 255
53.7159 40.3275 -36.7718  255 255 255
16.5939 78.3625 -108.116  255 255 255
47.4636 36.4039 -23.3633  255 255 255
1.84485 76.1321 -97.0114  255 255 255
44.111 14.298 24.9943  255 255 255
0.426737 70.8786 -90.0227  255 255 255
53.9034 38.3097 -36.0553  255 255 255
49.5524 19.8373 11.0436  255 255 255
50.5758 15.74 15.7756  255 255 255
29.2825 63.212 -82.9247  255 255 255
44.279 18.2808 12.4695  255 255 255
-0.62849 73.6234 -97.9708  255 255 255
55.1431 33.1397 -27.5273  255 255 255
50.1126 15.4708 15.0203  255 255 255
48.8279 13.8008 24.2986  255 255 255
47.7253 18.6824 9.2398  255 255 255
50.3607 15.9154 14.9846  255 255 255
46.7271 16.2584 14.662  255 255 255
46.0592 18.61 11.4072  255 255 255
-4.19716 71.9044 -94.1531  255 255 255
21.8309 75.0333 -116.518  255 255 255
45.6484 17.4171 12.328  255 255 255
52.389 9.70586 25.6389  255 255 255
57.621 26.9565 -18.6509  255 255 255
50.4317 13.6251 15.8238  255 255 255
19.9425 74.585 -116.728  255 255 255
-6.55145 69.5055 -94.7053  255 255 255
-1.02413 70.9017 -97.6015  255 255 255
41.3894 75.5481 -135.801  255 255 255
42.802 13.5799 15.9815  255 255 255
47.6356 15.6545 8.67128  255 255 255
51.4684 13.5352 16.969  255 255 255
46.1935 14.3537 11.5793  255 255 255
50.2606 13.1587 12.3921  255 255 255
47.6435 14.7934 8.52217  255 255 255
52.9979 6.69448 27.009  255 255 255
45.6351 14.538 9.53439  255 255 255
46.738 13.5876 12.2193  255 255 255
13.7258 69.874 -114.396  255 255 255
13.042 70.542 -114.797  255 255 255
49.7918 15.3584 7.97771  255 255 255
47.8668 13.4457 10.9707  255 255 255
43.677 12.296 15.6146  255 255 255
53.2866 27.6366 -31.8848  255 255 255
56.8036 21.4084 -18.1954  255 255 255
50.9711 9.7112 17.6327  255 255 255
55.6943 23.0089 -23.7137  255 255 255
50.1306 11.0753 12.7487  255 255 255
49.8015 10.1451 13.5823  255 255 255
51.4558 9.48907 12.7389  255 255 255
49.73 7.96047 17.9438  255 255 255
46.3955 13.663 5.87447  255 255 255
50.2942 9.20772 12.6964  255 255 255
50.6704 6.91473 19.7085  255 255 255
47.1449 13.6474 5.25816  255 255 255
8.96348 62.4739 -109.562  255 255 255
53.6152 28.2441 -44.0394  255 255 255
42.2714 10.1354 9.54663  255 255 255
54.2783 25.744 -36.1875  255 255 255
46.587 14.5068 -0.148156  255 255 255
45.874 12.7899 -0.0978465  255 255 255
49.5673 6.95878 15.3022  255 255 255
47.0467 11.8544 5.5904  255 255 255
56.9845 20.4793 -24.8639  255 255 255
46.9081 11.4266 3.35491  255 255 255
45.9797 6.76994 16.8412  255 255 255
48.4933 8.31602 10.5357  255 255 255
49.4234 6.10861 14.9069  255 255 255
51.0067 7.45227 9.50343  255 255 255
47.6032 7.96373 9.7421  255 255 255
48.4802 6.36175 13.3119  255 255 255
47.7911 8.40897 8.67695  255 255 255
48.4341 8.05866 10.163  255 255 255
47.0336 11.359 2.36669  255 255 255
53.5723 26.6247 -46.9636  255 255 255
53.0187 26.1344 -46.9774  255 255 255
52.6252 25.7402 -44.9259  255 255 255
28.0059 46.2527 -91.4923  255 255 255
53.8251 26.1817 -54.4458  255 255 255
19.9728 38.4523 -65.1452  255 255 255
54.6507 26.621 -53.4148  255 255 255
46.6353 9.01455 4.28558  255 255 255
48.0529 6.23724 7.80694  255 255 255
47.6942 7.02585 4.77786  255 255 255
49.1638 2.40357 17.9267  255 255 255
49.7601 1.55528 18.2161  255 255 255
47.4821 8.7071 2.20101  255 255 255
-14.8149 49.7358 -81.9067  255 255 255
48.6911 5.03906 7.08379  255 255 255
48.9754 4.04826 8.27052  255 255 255
15.2631 36.6361 -67.1908  255 255 255
49.9666 -1.39209 23.1999  255 255 255
49.7263 4.48943 9.53136  255 255 255
48.7461 4.46834 6.68494  255 255 255
55.8544 -1.44059 17.2844  255 255 255
50.2259 4.98353 3.85901  255 255 255
49.2044 4.92331 7.506  255 255 255
55.0331 -0.799826 16.4177  255 255 255
53.2874 14.6543 -30.2059  255 255 255
49.5403 3.53487 5.08771  255 255 255
49.4961 1.83318 9.76257  255 255 255
50.4756 2.31183 7.16155  255 255 255
50.9773 1.55532 6.96421  255 255 255
-21.8102 49.0332 -90.7096  255 255 255
49.6625 0.77319 10.8557  255 255 255
50.5897 1.6703 10.4615  255 255 255
48.7732 1.18512 13.5075  255 255 255
48.6379 -1.83648 17.8649  255 255 255
53.9135 -0.182733 13.2913  255 255 255
53.8446 -1.74019 13.8259  255 255 255
49.8164 2.32577 5.40884  255 255 255
49.5753 -3.09669 20.0164  255 255 255
53.7194 -1.45052 12.0481  255 255 255
45.3125 3.40312 4.04717  255 255 255
49.3993 3.10264 3.09543  255 255 255
50.7901 0.190448 13.1183  255 255 255
7.61797 36.1659 -73.2637  255 255 255
52.972 -1.48216 15.0213  255 255 255
47.3935 4.11629 -2.73431  255 255 255
51.1254 16.0882 -44.4732  255 255 255
50.7301 -0.106576 7.88913  255 255 255
50.138 2.41788 2.10176  255 255 255
54.9312 -2.39369 12.0699  255 255 255
51.2532 15.1351 -43.1145  255 255 255
20.0548 31.6416 -76.6784  255 255 255
53.7784 -4.6952 16.5257  255 255 255
3.90066 37.6621 -86.9742  255 255 255
49.7694 1.12797 1.4484  255 255 255
48.4945 0.735657 3.15416  255 255 255
50.8656 0.848185 0.114358  255 255 255
49.4557 -5.98178 22.8935  255 255 255
16.4514 30.0957 -76.3811  255 255 255
14.9001 31.9162 -82.8189  255 255 255
49.3628 -0.593082 2.95839  255 255 255
53.1739 -3.66143 6.987  255 255 255
7.63634 32.0888 -82.5926  255 255 255
27.4826 23.7573 -69.577  255 255 255
48.216 0.388646 -6.09566  255 255 255
47.407 0.505584 -3.99852  255 255 255
48.3902 -0.28611 -5.28037  255 255 255
4.64117 0.683041 27.3145  255 255 255
0.638929 27.8192 -63.1505  255 255 255
46.6671 0.0950967 -7.91182  255 255 255
56.2526 -6.83893 6.31727  255 255 255
57.964 -7.63645 8.7717  255 255 255
55.1669 -7.69265 12.1242  255 255 255
56.1307 -8.97221 12.3813  255 255 255
54.9435 -7.96225 9.58067  255 255 255
48.1532 -7.36655 18.7182  255 255 255
52.4483 -5.73221 0.843903  255 255 255
-2.11831 0.621539 26.1487  255 255 255
46.5371 -0.893642 -12.9519  255 255 255
47.0088 -0.270763 -12.2165  255 255 255
45.4647 -0.633157 -10.7242  255 255 255
44.8206 -0.869891 -11.9711  255 255 255
46.1841 -1.0257 -9.19607  255 255 255
46.1997 -1.02789 -9.8318  255 255 255
46.9848 -4.23407 0.164371  255 255 255
48.1056 -9.78845 17.8322  255 255 255
-7.72575 -0.487736 39.8861  255 255 255
50.3295 -4.51335 -2.41447  255 255 255
50.473 -5.44823 -2.28077  255 255 255
46.7646 -7.08251 6.51936  255 255 255
45.948 -7.77309 6.50652  255 255 255
-3.56617 22.5277 -60.3898  255 255 255
56.2769 -9.26864 5.3985  255 255 255
56.391 -9.20056 4.94045  255 255 255
-8.20583 -0.203481 36.1358  255 255 255
-8.66469 -0.118879 36.3069  255 255 255
-8.59578 -0.484669 37.9957  255 255 255
48.1241 -11.5073 21.4024  255 255 255
2.70136 17.4891 -45.1901  255 255 255
49.3271 -4.18505 -10.4075  255 255 255
45.965 -4.51242 -5.15614  255 255 255
2.04183 -3.51873 32.7653  255 255 255
8.68346 -6.83065 35.3815  255 255 255
53.8912 -10.222 7.52007  255 255 255
1.34943 -3.90154 33.4101  255 255 255
49.0051 -5.04299 -9.50874  255 255 255
54.5626 -12.4904 13.3347  255 255 255
48.9156 -5.39348 -7.43228  255 255 255
48.8746 -5.29702 -7.36516  255 255 255
48.7528 -13.305 21.8107  255 255 255
49.5599 -7.0372 -6.13314  255 255 255
49.688 -6.06838 -5.45003  255 255 255
48.6857 -13.3159 20.323  255 255 255
52.9341 -10.904 5.78277  255 255 255
47.7067 -13.0981 19.5475  255 255 255
-11.3464 -1.98617 35.9493  255 255 255
55.1534 -12.4799 9.82149  255 255 255
-5.25775 16.3753 -50.9666  255 255 255
5.26401 -8.05427 38.3032  255 255 255
48.3087 -11.985 8.48571  255 255 255
46.9206 -11.5672 4.33886  255 255 255
56.5519 -13.8208 5.88637  255 255 255
55.0031 -14.9222 9.39641  255 255 255
48.0589 -10.7596 2.20549  255 255 255
49.3658 -8.46812 -9.95762  255 255 255
47.7012 -13.3806 13.5442  255 255 255
49.8738 -9.06009 -11.3143  255 255 255
47.2629 -13.7655 12.6514  255 255 255
49.4328 -8.87004 -12.8489  255 255 255
5.0366 -8.77464 39.8948  255 255 255
49.2032 -8.95988 -14.4528  255 255 255
47.6073 -15.6824 18.5813  255 255 255
47.1428 -16.7791 19.2685  255 255 255
47.4536 -15.8037 20.6282  255 255 255
-10.4759 15.2343 -52.4204  255 255 255
47.9316 -14.3601 12.5542  255 255 255
-9.59599 -4.02461 32.1732  255 255 255
-5.14217 -7.6087 37.8661  255 255 255
-5.42423 -6.60031 37.0274  255 255 255
49.2453 -10.4945 -12.8079  255 255 255
-5.10137 -7.2623 37.33  255 255 255
-3.55445 -6.92577 36.7634  255 255 255
54.8162 -15.1687 -1.8646  255 255 255
47.143 -15.7517 10.4831  255 255 255
-8.19728 -5.53556 34.3592  255 255 255
-10.7465 -4.33451 30.5783  255 255 255
10.0565 -11.9514 38.3661  255 255 255
-2.71422 -8.74863 39.8257  255 255 255
50.7531 -11.1082 -13.3071  255 255 255
50.6534 -10.5862 -12.765  255 255 255
47.3959 -17.2208 21.4126  255 255 255
-5.86913 -6.27201 36.6439  255 255 255
-2.68171 -7.88432 37.6045  255 255 255
-3.73356 -8.00634 38.3079  255 255 255
49.5778 -10.0726 -18.2243  255 255 255
-3.60553 -8.64665 39.308  255 255 255
-0.448584 -9.77866 39.6441  255 255 255
-10.2317 -4.94123 32.8348  255 255 255
53.8598 -15.6952 0.354726  255 255 255
53.6491 -14.7313 1.29747  255 255 255
-8.91086 -5.87189 35.3223  255 255 255
1.29093 -10.4766 39.9216  255 255 255
46.7218 -18.5135 17.0497  255 255 255
45.6859 -19.1568 22.2498  255 255 255
45.4745 -18.6098 21.7839  255 255 255
46.8191 -18.4121 16.9063  255 255 255
-6.96301 -7.14234 37.3597  255 255 255
51.1907 -12.7115 -14.8888  255 255 255
52.7296 -15.3873 -3.61293  255 255 255
55.5412 -17.3237 3.08746  255 255 255
-7.11381 -8.2192 36.2792  255 255 255
51.8861 -14.5585 -4.69921  255 255 255
46.3241 -18.1979 16.0784  255 255 255
-11.153 -6.13962 30.8712  255 255 255
-12.2816 -5.73546 32.0967  255 255 255
6.81259 -12.6732 40.9741  255 255 255
-9.38386 -8.16337 36.5149  255 255 255
-8.14612 -8.68842 35.9641  255 255 255
46.9515 -16.843 3.07236  255 255 255
58.3199 -19.105 -0.319364  255 255 255
51.054 -15.3085 -11.2654  255 255 255
-7.46866 -8.55367 37.4363  255 255 255
-2.09708 -11.3265 39.5166  255 255 255
52.6844 -15.4416 -8.80098  255 255 255
51.7765 -15.2881 -10.3641  255 255 255
17.5418 -14.5958 31.2989  255 255 255
-7.42174 -9.54593 37.2818  255 255 255
45.6902 -19.1242 17.4696  255 255 255
24.0346 -15.3775 29.0334  255 255 255
22.6616 -15.9301 26.5931  255 255 255
53.2668 -16.3694 -8.86803  255 255 255
52.0314 -17.2045 -6.6093  255 255 255
10.8926 -14.6993 38.0974  255 255 255
19.4095 -15.1732 30.6925  255 255 255
-4.84487 -11.3329 39.092  255 255 255
-14.204 -4.1581 14.8236  255 255 255
52.3123 -17.9006 -6.2317  255 255 255
-2.60954 -12.0878 40.4274  255 255 255
-0.283959 -12.3516 41.8123  255 255 255
52.7713 -17.5402 -6.86867  255 255 255
-18.4231 -0.807118 8.9654  255 255 255
46.4081 -20.9514 17.7424  255 255 255
-15.4466 -3.88228 16.6643  255 255 255
-6.28172 -11.5606 37.4676  255 255 255
-23.1815 7.30509 -47.5807  255 255 255
-22.8644 6.59589 -47.5165  255 255 255
7.10354 -15.4397 44.0107  255 255 255
-16.9322 -5.55106 18.4215  255 255 255
-8.16534 -10.9068 38.0972  255 255 255
-4.76466 -12.2832 39.9224  255 255 255
-8.91669 -12.0022 38.3337  255 255 255
-17.0403 -6.23078 19.0019  255 255 255
-18.9893 -3.88278 11.6437  255 255 255
-17.181 -7.0665 18.3342  255 255 255
-18.0543 -7.25214 18.1235  255 255 255
-14.6667 -7.53326 27.1958  255 255 255
-3.96804 -14.0584 41.1177  255 255 255
-9.16451 -12.0158 37.624  255 255 255
-7.54223 -13.1733 40.0109  255 255 255
57.0615 -24.3464 0.131079  255 255 255
47.0717 -24.7825 18.4262  255 255 255
45.8749 -24.8733 17.407  255 255 255
-22.0308 -4.2445 12.1879  255 255 255
-22.3054 -4.69925 12.4808  255 255 255
-2.84712 -14.3899 41.5371  255 255 255
-2.59528 -14.803 41.0301  255 255 255
-17.6978 -6.97207 20.0243  255 255 255
20.6805 -21.4816 34.0979  255 255 255
-13.4183 -9.78906 32.7452  255 255 255
-1.59585 -13.9544 41.289  255 255 255
-19.8349 -6.3548 12.4658  255 255 255
-11.3287 -12.4922 35.4679  255 255 255
-6.11642 -14.0523 41.0497  255 255 255
-8.29269 -12.0934 37.5269  255 255 255
-21.6037 -5.09721 11.6475  255 255 255
-4.52647 -15.4681 40.5867  255 255 255
-2.77458 -15.0316 40.3798  255 255 255
-8.71385 -12.654 37.4472  255 255 255
9.99963 -18.0736 38.3891  255 255 255
1.67189 -16.7784 42.2001  255 255 255
-5.67649 -15.5301 40.832  255 255 255
7.5785 -18.5994 40.7321  255 255 255
-4.78158 -16.299 40.3307  255 255 255
-4.07968 -15.7595 40.4754  255 255 255
-0.344062 -16.2633 41.6821  255 255 255
-6.48639 -15.3663 39.2135  255 255 255
1.42713 -16.91 40.8791  255 255 255
-6.9385 -14.6834 38.7032  255 255 255
-15.6384 -11.2112 29.0936  255 255 255
-14.8186 -12.2795 30.1466  255 255 255
4.32312 -19.1631 41.5712  255 255 255
3.97061 -18.0989 40.8477  255 255 255
-2.65098 -16.753 41.3796  255 255 255
-16.543 -11.8199 27.5147  255 255 255
13.4868 -21.6963 38.3454  255 255 255
-3.80711 -15.9224 41.2377  255 255 255
21.6468 -23.0783 35.1731  255 255 255
-5.62178 -16.1529 40.4409  255 255 255
-14.1511 -12.8891 31.3882  255 255 255
-2.29626 -17.1894 40.7277  255 255 255
-1.045 -17.5248 41.6075  255 255 255
-18.9247 -10.2252 24.5586  255 255 255
-10.6861 -14.1639 36.4806  255 255 255
12.1088 -23.0067 39.3616  255 255 255
-7.98372 -16.162 38.7006  255 255 255
-7.39219 -16.5559 39.5704  255 255 255
-5.82932 -16.793 40.2496  255 255 255
-13.773 -14.8002 33.6287  255 255 255
4.92726 -20.9106 40.5522  255 255 255
-6.88568 -16.3058 39.3589  255 255 255
-16.825 -12.4 26.9589  255 255 255
-22.8572 -9.72019 18.7933  255 255 255
11.2151 -22.8032 40.4209  255 255 255
-1.02996 -18.1529 41.7586  255 255 255
0.349484 -19.696 40.8676  255 255 255
1.54977 -19.0156 40.4499  255 255 255
13.2184 -23.4074 38.8091  255 255 255
12.4474 -22.9943 40.3351  255 255 255
16.8832 -24.0177 39.8112  255 255 255
-14.1813 -13.7047 32.4878  255 255 255
6.82968 -21.3421 38.1467  255 255 255
-12.2859 -15.2743 35.9184  255 255 255
15.4688 -24.2187 38.2451  255 255 255
-15.4374 -13.9761 30.1898  255 255 255
16.4488 -24.4724 35.5436  255 255 255
-24.9654 -10.4451 19.4486  255 255 255
-11.0016 -16.1496 36.7664  255 255 255
-24.2878 -11.0242 21.6118  255 255 255
-24.1229 -10.839 20.2183  255 255 255
-3.89437 -20.2805 41.0522  255 255 255
5.06517 -21.7005 40.2528  255 255 255
5.53478 -21.404 39.2966  255 255 255
2.2212 -21.6988 40.6514  255 255 255
-17.1266 -15.0015 30.3957  255 255 255
-8.88555 -19.1908 39.5583  255 255 255
1.5957 -21.7271 40.1321  255 255 255
-21.8161 -13.0964 21.8261  255 255 255
-11.827 -17.9705 34.9319  255 255 255
-13.003 -17.8278 34.6965  255 255 255
-11.3904 -17.6322 36.093  255 255 255
14.8435 -26.5534 43.0105  255 255 255
-7.66551 -20.5707 38.3203  255 255 255
-9.37698 -20.2714 37.396  255 255 255
-11.9769 -19.5043 35.4501  255 255 255
-18.2068 -16.2771 30.9159  255 255 255
-11.2374 -19.9356 36.4846  255 255 255
3.13374 -24.3886 42.5378  255 255 255
2.92877 -23.4567 41.9407  255 255 255
-15.1195 -18.7462 36.1738  255 255 255
2.70307 -23.8375 41.7708  255 255 255
1.54457 -24.0879 41.3358  255 255 255
-10.4764 -20.3316 37.0606  255 255 255
-10.3858 -19.6893 37.8365  255 255 255
-23.9806 -15.7219 25.9587  255 255 255
-10.6022 -20.5858 36.9404  255 255 255
10.4636 -27.4786 43.2012  255 255 255
12.7381 -28.3221 39.6316  255 255 255
5.20378 -25.277 40.6715  255 255 255
4.70834 -26.6279 42.0374  255 255 255
8.40473 -28.321 40.9145  255 255 255
-23.3413 -16.0494 29.1926  255 255 255
-23.162 -17.0944 28.5374  255 255 255
15.3873 -29.6771 43.7789  255 255 255
14.2741 -29.0925 41.793  255 255 255
-24.2749 -17.0407 29.0472  255 255 255
-11.073 -21.3176 39.1494  255 255 255
-22.1532 -17.707 29.7505  255 255 255
-23.0982 -17.6423 29.834  255 255 255
-13.0347 -21.124 37.9052  255 255 255
-5.93756 -23.8259 40.9488  255 255 255
-7.18081 -23.1393 40.9777  255 255 255
6.88869 -27.7635 41.5782  255 255 255
-3.28497 -24.1419 42.3426  255 255 255
-2.6894 -24.4049 40.6701  255 255 255
-20.4766 -18.4864 30.3809  255 255 255
-22.5975 -18.9221 30.5665  255 255 255
-20.0329 -18.1344 31.357  255 255 255
-22.9513 -18.6649 29.0284  255 255 255
8.88708 -28.5543 42.9824  255 255 255
-1.36659 -25.7071 41.1707  255 255 255
-21.7196 -19.2222 31.8143  255 255 255
-6.18935 -24.8994 41.0094  255 255 255
-5.47439 -24.7881 42.2581  255 255 255
-4.46009 -24.9376 40.4959  255 255 255
4.25881 -28.8016 42.9322  255 255 255
-5.53853 -24.6629 39.5367  255 255 255
4.42689 -28.9409 43.4918  255 255 255
6.30139 -29.2483 45.0156  255 255 255
6.45324 -30.6098 45.8334  255 255 255
-19.9977 -22.2592 33.6092  255 255 255
-15.4636 -24.5207 36.2348  255 255 255
3.97424 -28.5462 43.5535  255 255 255
15.3047 -32.8751 37.3395  255 255 255
12.9759 -32.5977 36.658  255 255 255
-21.6158 -21.7492 32.2672  255 255 255
-15.3479 -23.3595 37.218  255 255 255
1.06459 -29.8984 43.4568  255 255 255
-2.59703 -27.8373 41.8838  255 255 255
-20.1801 -22.9526 35.0587  255 255 255
-17.121 -22.6712 36.2772  255 255 255
-0.238807 -28.3169 43.137  255 255 255
2.17209 -30.1597 44.3901  255 255 255
-12.8355 -25.3335 38.9705  255 255 255
-0.160608 -29.123 43.1859  255 255 255
-15.5909 -24.5879 38.0238  255 255 255
-11.1772 -24.8288 40.8463  255 255 255
-2.39856 -29.4801 42.5854  255 255 255
-19.5805 -23.3335 36.4151  255 255 255
-5.07609 -27.3229 41.354  255 255 255
-20.671 -23.0926 36.7592  255 255 255
0.79548 -29.8708 43.539  255 255 255
2.80372 -31.3933 43.3079  255 255 255
-5.97092 -28.2692 43.022  255 255 255
-4.33731 -29.5244 42.3974  255 255 255
-10.9646 -27.3083 40.0497  255 255 255
-6.69089 -28.5062 42.2048  255 255 255
-0.647 -29.9911 42.7841  255 255 255
-9.95604 -27.4589 42.0545  255 255 255
-11.2735 -27.9172 40.2957  255 255 255
-6.32106 -29.0516 43.0793  255 255 255
-6.22693 -28.7093 42.0028  255 255 255
3.24335 -31.7761 41.6867  255 255 255
9.85459 -34.1291 37.9713  255 255 255
10.3008 -34.2555 37.9585  255 255 255
-12.2221 -27.4524 39.909  255 255 255
0.989482 -31.0597 42.022  255 255 255
1.32834 -32.0564 43.1623  255 255 255
16.0143 -38.364 33.0492  255 255 255
-8.7792 -29.3258 41.4762  255 255 255
14.6667 -37.2227 33.4386  255 255 255
-7.21862 -29.1596 40.4159  255 255 255
-1.71524 -31.9152 40.5671  255 255 255
-0.866929 -31.5535 41.3621  255 255 255
0.0788493 -32.119 42.7579  255 255 255
-6.71083 -31.0704 41.2266  255 255 255
0.461602 -32.8263 40.4941  255 255 255
13.6228 -36.9691 32.3863  255 255 255
-7.45971 -31.4719 40.7545  255 255 255
-6.43 -30.7963 40.5688  255 255 255
-0.409457 -33.152 40.6566  255 255 255
-16.5172 -27.8557 33.8718  255 255 255
-3.71308 -33.1143 42.8684  255 255 255
-8.03523 -31.2106 37.6778  255 255 255
-6.72504 -31.6343 39.3942  255 255 255
2.48648 -36.2731 37.0736  255 255 255
2.8852 -36.4938 36.5864  255 255 255
-3.3088 -32.685 39.1991  255 255 255
-3.82168 -34.0709 38.8966  255 255 255
3.06684 -37.2309 36.391  255 255 255
-7.44889 -33.8708 37.3612  255 255 255
2.0323 -37.5719 36.966  255 255 255
1.19808 -36.7921 36.9513  255 255 255
0.252409 -36.9969 36.2748  255 255 255
-9.54038 -33.4011 35.9909  255 255 255
-9.83444 -33.3452 35.6089  255 255 255
-16.2389 -31.7749 30.7486  255 255 255
-16.3447 -33.1203 30.8446  255 255 255
-7.92764 -36.1639 34.006  255 255 255
6.01444 -39.9712 32.9051  255 255 255
5.25094 -40.283 33.7551  255 255 255
-7.56207 -36.6013 34.0348  255 255 255
2.52879 -39.8284 34.3031  255 255 255
-8.31398 -35.9399 35.3629  255 255 255
-16.3216 -32.9072 29.4213  255 255 255
-13.2704 -35.49 29.9928  255 255 255
-19.0322 -34.4681 25.5512  255 255 255
-13.9699 -36.5693 28.6867  255 255 255
-9.30821 -37.3699 30.4372  255 255 255
-21.8554 -34.931 20.7936  255 255 255
5.59876 -46.3189 33.1845  255 255 255
-22.1617 -39.2466 21.9255  255 255 255
-47.4697 -32.2508 8.54823  255 255 255
-46.2627 -32.5456 8.79052  255 255 255
-4.60589 -44.839 33.2988  255 255 255
-2.02753 -45.7008 32.7731  255 255 255
-5.74153 -45.6112 31.9549  255 255 255
-4.33922 -45.6526 32.3235  255 255 255
-4.50552 -46.8072 32.6689  255 255 255
-4.27399 -46.8989 31.7223  255 255 255
-8.07875 -46.26 31.3193  255 255 255
-6.50521 -47.4288 32.0471  255 255 255
-5.24646 -46.7109 31.7602  255 255 255
-13.1862 -45.11 28.6614  255 255 255
-37.4635 -38.3799 13.2459  255 255 255
-37.9012 -39.0835 12.7473  255 255 255
12.8606 -54.2237 36.6389  255 255 255
-34.1245 -40.4785 19.9286  255 255 255
-25.04 -44.2747 22.2008  255 255 255
-26.2974 -43.7148 23.3002  255 255 255
-25.1256 -44.6829 23.3175  255 255 255
-22.0325 -44.8125 26.799  255 255 255
-31.1633 -43.8351 25.061  255 255 255
6.30376 -55.3283 40.071  255 255 255
8.88114 -55.9872 40.5822  255 255 255
2.33238 -54.2404 37.2411  255 255 255
0.171969 -53.8852 39.9785  255 255 255
-0.681123 -53.4723 38.0893  255 255 255
9.64457 -58.0795 42.4393  255 255 255
13.1315 -57.8533 46.086  255 255 255
-30.3485 -47.0883 27.2459  255 255 255
-0.492934 -54.3655 38.7155  255 255 255
-32.079 -45.3917 26.5173  255 255 255
-33.0353 -46.382 27.2135  255 255 255
-23.1809 -48.3058 31.5113  255 255 255
-30.9139 -45.8907 26.6866  255 255 255
-22.6542 -48.23 31.6692  255 255 255
7.13257 -57.9475 42.691  255 255 255
10.2763 -59.0397 45.2461  255 255 255
5.56445 -57.7688 44.1046  255 255 255
-32.6794 -46.9695 28.5368  255 255 255
6.52692 -59.3204 46.0302  255 255 255
7.89035 -59.543 45.7853  255 255 255
-18.0417 -52.5988 32.2718  255 255 255
-40.6798 -45.2949 25.4013  255 255 255
10.3305 -60.8823 45.279  255 255 255
5.56051 -59.675 45.6114  255 255 255
-23.503 -51.7906 33.1109  255 255 255
-3.16458 -57.846 41.7944  255 255 255
-3.40031 -58.4416 42.0513  255 255 255
-42.2962 -45.2895 28.1879  255 255 255
-31.5059 -50.3231 30.5863  255 255 255
-8.84348 -56.0414 41.3636  255 255 255
4.86215 -61.6319 49.0328  255 255 255
-3.73289 -59.6825 43.9228  255 255 255
-1.98085 -60.1469 46.5411  255 255 255
-11.479 -60.2794 44.19  255 255 255
-30.1414 -55.1902 37.2833  255 255 255
-22.726 -58.9144 40.797  255 255 255
-22.5118 -58.4972 43.158  255 255 255
-7.7047 87.2589 -41.511  255 255 255
-8.74527 87.123 -41.7262  255 255 255
64.8984 103.86 -87.8409  255 255 255
53.4082 53.9322 -3.53589  255 255 255
33.3297 84.1544 -55.0274  255 255 255
69.9754 105.414 -102.5  255 255 255
62.8036 51.0235 -4.53153  255 255 255
36.004 101.431 -90.3923  255 255 255
60.703 99.9106 -95.4229  255 255 255
58.7786 52.7922 -13.4434  255 255 255
73.1705 97.9776 -97.4734  255 255 255
21.4786 81.7105 -59.4166  255 255 255
52.7104 35.5574 15.4755  255 255 255
72.5732 96.5709 -99.0644  255 255 255
51.6702 43.8203 -0.878867  255 255 255
19.6643 82.0631 -60.002  255 255 255
12.5348 86.5443 -67.2369  255 255 255
56.3555 53.1436 -20.2314  255 255 255
48.5287 32.1198 20.7029  255 255 255
38.1098 93.4581 -92.8046  255 255 255
50.5098 34.0345 12.7456  255 255 255
19.9557 74.7897 -56.6953  255 255 255
56.0598 51.5623 -21.9043  255 255 255
36.7589 75.23 -60.689  255 255 255
-1.70387 77.162 -55.524  255 255 255
48.8935 49.9816 -17.3941  255 255 255
55.8853 41.2819 -2.88769  255 255 255
92.0395 107.084 -145.76  255 255 255
53.4441 24.3416 28.495  255 255 255
70.4314 91.6565 -109.05  255 255 255
79.1787 102.618 -133.827  255 255 255
5.05441 74.9815 -55.8172  255 255 255
-17.1431 79.7153 -59.0689  255 255 255
50.6653 26.9444 20.2928  255 255 255
49.4381 28.4571 22.1407  255 255 255
59.9198 93.5403 -110.583  255 255 255
29.2739 86.1166 -90.2087  255 255 255
50.6014 43.3732 -10.8315  255 255 255
-1.18425 74.4239 -61.3519  255 255 255
-12.277 77.6023 -62.1028  255 255 255
44.4668 27.7787 19.876  255 255 255
58.5084 100.054 -131.986  255 255 255
50.8271 32.0678 8.40478  255 255 255
16.5013 81.4023 -78.7273  255 255 255
52.1801 30.4892 12.4782  255 255 255
49.3055 25.6408 19.4769  255 255 255
62.1558 94.6294 -125.263  255 255 255
52.1037 86.2004 -110.439  255 255 255
57.5249 96.8394 -134.307  255 255 255
59.3709 96.6652 -134.608  255 255 255
51.6583 42.7633 -21.4067  255 255 255
57.7271 96.5178 -134.801  255 255 255
57.4551 95.5738 -135.138  255 255 255
58.7285 95.2593 -134.349  255 255 255
50.2159 23.6611 19.64  255 255 255
50.7856 28.6912 7.66478  255 255 255
52.1289 20.2297 23.3031  255 255 255
62.2332 93.8199 -139.141  255 255 255
50.8177 22.4824 18.0921  255 255 255
50.5192 22.2184 18.6361  255 255 255
47.4329 19.5106 24.6124  255 255 255
71.5373 88.1292 -134.378  255 255 255
50.4398 22.2265 15.6446  255 255 255
38.0513 88.3185 -120.817  255 255 255
-0.611568 74.9128 -78.5006  255 255 255
47.9366 24.9751 13.8281  255 255 255
61.6761 86.9881 -128.879  255 255 255
46.722 19.4794 21.4582  255 255 255
47.4033 17.9728 24.1822  255 255 255
52.4815 19.6537 20.6678  255 255 255
47.5165 16.8064 23.8696  255 255 255
47.9306 18.6179 21.0536  255 255 255
48.7241 38.1408 -20.5559  255 255 255
-8.64549 76.8786 -85.9611  255 255 255
42.686 83.8872 -121.975  255 255 255
6.60418 72.4944 -80.2462  255 255 255
58.3371 30.3267 -11.0498  255 255 255
1.56314 76.0734 -94.6251  255 255 255
46.0863 15.9391 22.7198  255 255 255
46.4024 18.9165 12.5851  255 255 255
47.9826 22.8603 7.31581  255 255 255
47.3199 15.5947 16.6745  255 255 255
23.7573 77.8638 -116.483  255 255 255
49.9111 17.4761 13.4242  255 255 255
0.707137 70.0912 -92.7086  255 255 255
49.8243 18.266 11.7638  255 255 255
46.0385 18.1205 12.8945  255 255 255
50.6829 15.8791 15.34  255 255 255
51.4712 16.2907 14.8246  255 255 255
22.2422 76.0097 -116.29  255 255 255
49.613 16.1494 13.6483  255 255 255
50.5216 16.2515 13.9894  255 255 255
55.7416 29.0593 -20.8434  255 255 255
75.0355 61.9961 -117.047  255 255 255
53.2916 27.3981 -18.5816  255 255 255
29.664 59.7139 -83.2938  255 255 255
-16.7851 67.8847 -85.8906  255 255 255
-17.8618 69.4634 -85.7009  255 255 255
46.5713 14.1024 14.198  255 255 255
-1.17107 70.8668 -100.174  255 255 255
40.4476 75.5424 -135.187  255 255 255
-17.4384 61.2613 -71.6174  255 255 255
51.4587 27.0355 -25.6267  255 255 255
-12.8133 67.1499 -89.0584  255 255 255
-14.7692 67.0014 -90.677  255 255 255
47.9003 17.5907 3.56564  255 255 255
42.8618 14.0093 9.30197  255 255 255
-15.3478 64.1968 -90.2538  255 255 255
-20.3299 62.5091 -88.5465  255 255 255
-15.4029 61.3964 -85.6934  255 255 255
-5.26116 63.5354 -101.032  255 255 255
-6.07959 58.6493 -87.6759  255 255 255
45.836 14.3392 1.17596  255 255 255
-9.23691 57.9469 -85.0538  255 255 255
49.5284 12.9874 5.82896  255 255 255
49.0065 28.8197 -39.2411  255 255 255
51.8597 7.61297 11.9841  255 255 255
48.1079 9.13007 9.72171  255 255 255
48.3341 9.28055 11.3451  255 255 255
46.8082 7.4425 11.2621  255 255 255
49.2705 8.47505 10.0272  255 255 255
52.1978 23.6301 -36.3005  255 255 255
53.5912 23.1594 -34.5297  255 255 255
48.5005 7.31023 8.46983  255 255 255
45.9496 11.0463 0.765391  255 255 255
48.5141 8.19752 6.24506  255 255 255
47.3766 6.90263 10.2117  255 255 255
48.8439 22.6676 -39.6826  255 255 255
50.0853 22.7555 -39.4236  255 255 255
50.0453 2.86002 18.0021  255 255 255
-4.32202 54.0277 -98.6513  255 255 255
49.2487 5.74203 8.95097  255 255 255
55.8278 16.8644 -26.4078  255 255 255
52.9309 28.5208 -61.3154  255 255 255
50.5144 23.396 -44.6964  255 255 255
-15.2844 50.1887 -83.0891  255 255 255
25.3861 45.4081 -99.9577  255 255 255
-1.49804 50.8304 -98.5843  255 255 255
55.2628 23.7032 -59.0208  255 255 255
23.846 43.4045 -99.0363  255 255 255
51.1977 4.3567 4.01145  255 255 255
49.878 3.73822 4.80615  255 255 255
17.8829 40.5439 -90.069  255 255 255
16.7604 40.2857 -89.4294  255 255 255
-24.1791 48.5094 -89.3952  255 255 255
-24.0707 48.2898 -83.8837  255 255 255
-22.7169 52.6342 -98.4211  255 255 255
49.0619 20.1136 -47.2842  255 255 255
51.1074 1.26894 8.54717  255 255 255
50.3538 19.3652 -45.9998  255 255 255
-26.0465 46.4157 -78.4526  255 255 255
8.20391 38.4468 -90.3651  255 255 255
54.5436 10.4499 -34.7319  255 255 255
46.8042 4.64012 -6.33484  255 255 255
46.084 -0.391199 4.11366  255 255 255
47.185 0.128305 5.05736  255 255 255
-20.8305 45.0787 -97.5038  255 255 255
21.2912 14.2225 -23.7283  255 255 255
52.1873 -0.868961 -2.63171  255 255 255
49.7692 -1.0331 -2.09707  255 255 255
8.55939 26.8516 -66.7212  255 255 255
5.13694 27.6745 -66.9846  255 255 255
4.40169 22.969 -54.2779  255 255 255
6.7662 26.0242 -68.5031  255 255 255
48.8733 -5.89393 8.6307  255 255 255
54.1904 -8.4834 12.8142  255 255 255
46.1972 -0.820994 -12.7144  255 255 255
47.3991 0.345796 -12.4917  255 255 255
-17.6545 32.8009 -79.7947  255 255 255
1.09714 24.1612 -67.7703  255 255 255
-7.66961 -1.08101 38.8982  255 255 255
-1.7847 22.1561 -58.0362  255 255 255
50.9032 -7.10066 1.7751  255 255 255
-0.742383 22.0547 -63.8013  255 255 255
56.315 -9.99632 8.48878  255 255 255
56.4301 -9.75288 6.98065  255 255 255
4.14997 19.8718 -64.0697  255 255 255
49.4446 -6.29475 -5.42317  255 255 255
46.4521 -4.48126 -8.74329  255 255 255
-10.6998 -0.317272 35.5158  255 255 255
52.1088 -7.41309 -4.95297  255 255 255
46.3196 -6.9716 -8.0378  255 255 255
-9.01469 19.342 -61.8989  255 255 255
54.9828 -11.8545 2.88998  255 255 255
55.2246 -11.8392 2.62417  255 255 255
52.841 -11.9916 6.7961  255 255 255
55.8985 -14.0177 7.39023  255 255 255
55.551 -13.3223 6.50358  255 255 255
47.0497 -15.4403 21.5052  255 255 255
47.5268 -9.52332 -6.31034  255 255 255
-10.2551 -2.84556 30.1617  255 255 255
-13.1569 17.9825 -63.2095  255 255 255
-10.5202 -2.92902 29.7711  255 255 255
46.4421 -10.5766 -4.6056  255 255 255
50.0581 -9.87227 -11.178  255 255 255
46.9998 -16.9282 19.2686  255 255 255
55.6131 -15.4561 0.721703  255 255 255
46.6194 -16.7182 14.9567  255 255 255
-12.9366 -0.163774 14.9408  255 255 255
-13.8352 -1.74312 15.9413  255 255 255
47.0233 -17.7168 15.0414  255 255 255
-13.291 -1.14477 11.5727  255 255 255
-13.8167 -0.624663 13.9181  255 255 255
-1.02274 -11.6978 52.8145  255 255 255
-16.2158 13.5578 -54.2078  255 255 255
-17.0278 -0.550401 6.35135  255 255 255
55.3664 -16.6406 -2.97491  255 255 255
-5.60845 -10.6202 39.5413  255 255 255
-14.967 -3.43651 14.4084  255 255 255
-15.0803 -2.79181 15.0337  255 255 255
0.604803 -12.2343 40.4919  255 255 255
-16.8777 -3.56477 15.3071  255 255 255
-18.5069 -0.787769 6.0015  255 255 255
46.0784 -20.5594 18.11  255 255 255
-3.94928 -11.0177 40.1198  255 255 255
46.7858 -20.6418 12.9335  255 255 255
23.6715 -16.1203 26.6672  255 255 255
-6.80273 -10.2308 37.3811  255 255 255
6.8111 -14.2753 40.1054  255 255 255
-0.238817 -12.5994 41.3388  255 255 255
6.00805 -14.6743 41.0779  255 255 255
